0.263831 0.0979491 -0.220185
-0.231123 0.599852 0.199156
0.466911 0.0127755 -0.121068
-0.361367 0.409243 0.202991
0.309244 -0.238829 0.321146
-0.390606 0.653222 0.0847902
-0.231002 0.043273 -0.418418
-0.0182709 -0.0128245 -0.418418
0.378196 -0.260979 0.267775
-0.0487683 -0.0129058 -0.00670223
0.416318 -0.178254 0.321146
0.33245 -0.543803 0.408662
0.0655972 -0.0129058 -0.0905703
0.362947 -0.231204 -0.407316
-0.231753 0.165263 0.419419
0.309191 -0.543803 0.32877
-0.262251 0.775671 -0.250682
0.416318 -0.260979 0.290648
-0.0744401 -0.490433 -0.311677
0.271455 -0.0129058 0.366892
-0.392845 0.310126 -0.0600728
-0.269875 0.584603 -0.0587175
0.294328 0.0890192 -0.424054
0.172338 -0.0129058 0.191531
0.466911 0.043273 -0.0448241
-0.201256 -0.215955 0.408883
0.0808459 0.0979491 0.405014
-0.0487683 0.0979491 -0.273555
-0.205365 -0.46756 0.351643
0.378196 -0.802724 -0.288804
0.466911 0.0508974 -0.0524484
-0.258094 0.493111 0.122912
-0.396234 0.26438 0.0085465
-0.239377 0.19576 0.180528
-0.0868902 -0.536179 0.257603
-0.147885 -0.757286 0.394204
-0.117388 -0.644108 0.321146
-0.372634 0.104268 0.168658
0.233333 0.0979491 -0.273555
0.385821 -0.0129058 -0.0905703
-0.261177 0.432116 0.107663
-0.0555855 -0.0253463 -0.418418
-0.285895 0.188136 0.351643
-0.248429 0.371121 0.153409
0.45444 0.0813948 0.425899
-0.135038 0.150014 0.344019
-0.262251 0.447364 0.102089
-0.140261 0.0585217 0.425899
-0.170758 -0.193082 -0.254168
0.431567 -0.260979 -0.273555
0.0808459 0.0979491 0.161034
0.362947 -0.574301 -0.304555
-0.338494 0.0813948 -0.25739
-0.254626 0.157639 0.39213
-0.231753 -0.0129058 -0.182063
-0.285124 0.0813948 -0.351
0.195211 -0.0129058 0.0847902
-0.141153 0.630349 -0.33455
-0.254626 0.104268 -0.390286
-0.125012 -0.658169 0.368965
0.378196 -0.322697 0.306193
0.378196 0.0979491 0.0695414
0.370572 -0.0100976 0.425899
-0.247002 0.531232 -0.399382
-0.323246 0.157639 0.291295
0.340074 -0.0329707 -0.424055
-0.0563927 -0.0462612 0.366892
-0.20888 0.302501 -0.242477
0.347699 -0.668178 -0.288804
0.357449 -0.414189 -0.311677
0.21046 -0.0129058 -0.243058
-0.285895 0.645598 -0.349799
0.466911 -0.00247319 0.0237952
-0.392361 0.180512 -0.0676972
0.33245 -0.238829 0.408797
-0.0640171 -0.0129058 0.20678
-0.186007 0.775671 0.351643
0.362947 -0.437062 -0.358645
-0.315621 0.775671 -0.15919
0.321694 -0.734412 -0.349799
-0.095523 -0.780159 -0.372672
-0.153934 0.546481 -0.319301
-0.198743 0.432116 0.260151
-0.208009 0.676095 -0.410794
-0.231753 0.775671 0.359267
-0.247002 0.0508974 -0.399382
-0.38424 0.43974 0.117845
0.0274753 -0.0129058 0.199156
-0.395749 0.188136 -0.0143266
0.466911 0.0280243 0.161034
-0.334433 0.637974 0.267775
-0.155509 -0.76491 -0.389141
-0.258094 0.348248 0.122912
-0.163134 -0.655908 0.305897
-0.270314 0.355872 0.0542927
-0.18072 0.43974 0.389765
0.15709 -0.0129058 -0.357423
0.33245 -0.475184 -0.407331
0.263831 0.0979491 -0.258306
-0.383265 0.454989 0.122912
-0.277499 0.493111 -0.362524
-0.117816 -0.391316 0.321146
-0.117388 -0.0253463 -0.234905
0.378196 -0.0129058 0.168658
-0.161789 -0.284575 -0.342174
0.126592 -0.0129058 0.138161
-0.395265 0.622725 0.0237952
-0.155509 0.0966436 0.422577
-0.0640171 -0.0129058 0.100039
0.347699 0.0979491 -0.0753215
-0.353743 0.0280243 0.225847
-0.147885 -0.482808 -0.254159
-0.0875055 -0.726788 -0.296428
0.362947 -0.178186 -0.288804
-0.0742439 -0.46756 -0.33455
-0.269875 -0.0129058 -0.121068
0.378196 -0.547411 -0.395545
-0.0945145 0.0979491 0.313521
-0.155509 0.310126 0.319266
0.21046 0.0979491 -0.220185
-0.224129 0.714217 0.425129
0.0960947 -0.0129058 -0.121068
-0.231753 0.622725 0.419419
-0.125012 -0.551403 -0.296428
-0.0945145 -0.0469111 0.420262
-0.269391 0.676095 -0.372672
0.396481 -0.10159 0.32877
-0.258094 0.508359 -0.121068
-0.307997 0.134765 0.317217
-0.368992 0.00515117 -0.177914
-0.375136 0.104268 -0.15919
-0.368992 0.165263 0.179758
0.0427241 -0.0129058 0.115288
-0.381797 0.493111 -0.128692
-0.381797 0.226258 -0.128692
-0.20888 0.0979491 0.183907
-0.264114 0.485486 0.0924145
-0.21038 -0.536179 -0.296428
-0.163134 0.0737705 0.425899
0.378196 -0.749661 -0.269562
0.324826 -0.0177219 0.425899
-0.140261 -0.833529 -0.302742
-0.223871 0.599852 -0.21256
-0.264114 0.660847 0.0924145
0.370572 -0.22358 -0.407023
-0.208533 0.363496 -0.243058
-0.140261 0.0890192 -0.424054
0.240958 0.0979491 0.298272
0.309577 -0.0129058 0.0085465
-0.117388 -0.0528581 -0.319301
-0.147544 0.157639 -0.326926
0.0274753 0.0203999 0.425899
-0.163134 -0.547411 0.267775
-0.201256 -0.0471378 -0.304053
0.355323 0.0979491 0.199156
-0.258094 0.294877 0.122912
0.33245 -0.0253463 -0.424055
-0.20888 0.302501 0.244321
-0.277499 0.00515117 -0.362524
0.263831 0.0813948 0.425899
0.463848 -0.0177219 0.374516
-0.0945145 -0.475184 0.257603
0.288678 -0.0177219 0.359267
-0.198743 0.157639 0.260151
-0.263 0.554106 -0.380296
-0.0335196 -0.0129058 -0.143941
0.317201 0.0979491 0.275399
-0.346119 0.0966436 -0.241359
-0.323246 0.653222 -0.289451
0.396468 -0.292199 -0.311677
-0.262251 0.599852 0.383034
-0.26978 0.645598 -0.0600728
0.370572 -0.528554 -0.255766
0.370572 0.0979491 0.244902
-0.256609 0.470238 -0.387921
0.357434 -0.414189 -0.319301
0.0579728 0.0979491 -0.365047
-0.135038 0.432116 -0.342174
-0.186007 0.607476 0.394196
-0.300372 0.775671 -0.113443
-0.155509 -0.528554 0.257611
0.271455 -0.0129058 -0.342174
-0.0741608 -0.482808 -0.326926
-0.117816 -0.360818 0.321146
-0.147885 -0.0129058 0.0085465
-0.0945145 -0.178868 -0.258306
-0.193631 0.447364 -0.266268
0.288678 -0.0177219 0.305897
-0.248429 0.729466 0.153409
0.396468 -0.612423 -0.311677
0.370572 -0.81511 -0.365047
0.39648 -0.0710925 -0.349799
0.466911 0.043273 -0.113443
0.385821 0.0979491 -0.410794
-0.231753 -0.0155522 0.336394
-0.109763 -0.176567 -0.304053
0.0274753 -0.0129058 -0.151565
-0.217113 0.615101 0.420262
0.423942 -0.260979 0.344019
-0.394781 0.19576 0.0314196
-0.0868902 -0.76491 0.390602
-0.277499 0.775671 0.122912
-0.147885 0.31775 -0.326518
0.0884703 0.0966436 0.422577
-0.201256 0.0979491 0.0161709
0.444755 -0.22358 -0.296428
-0.231123 0.157639 0.199156
-0.140261 -0.0129058 -0.0371997
0.423942 -0.0471378 0.321146
0.294328 -0.0129058 0.191531
0.0427241 0.0979491 -0.235433
-0.269875 0.157639 -0.372094
-0.156862 -0.10159 0.344019
-0.155509 -0.391316 0.359431
-0.285124 -0.0129058 0.039044
-0.323246 -0.0129058 -0.204936
0.309494 -0.254077 0.260151
-0.231123 0.752339 0.199156
-0.247002 0.775671 0.237278
-0.184057 0.416867 0.283024
-0.178383 0.371121 0.387806
-0.170758 0.241507 -0.379571
-0.315621 0.462613 -0.303482
0.444682 -0.238829 0.321146
-0.158257 -0.368443 -0.304053
-0.377266 0.256755 0.153409
-0.391865 0.416867 0.0760734
0.362947 0.0979491 0.229653
-0.250218 0.38637 -0.395545
-0.186007 -0.734412 -0.267001
-0.117388 -0.0487788 -0.296428
-0.384733 0.0890192 -0.113443
0.357449 -0.284575 0.313521
-0.166715 0.134765 0.305897
-0.193631 0.538857 -0.398743
0.446816 -0.0471378 -0.372672
0.33245 0.0979491 -0.220185
0.0427241 -0.0129058 0.275399
-0.210372 -0.528554 -0.395545
0.445054 -0.193082 0.305897
0.466911 0.043273 -0.258306
-0.285895 0.233882 0.351643
0.324826 0.0979491 0.389765
-0.0640171 0.0979491 0.374516
-0.156862 -0.292199 0.336394
0.233333 -0.0129058 0.161034
-0.362626 0.615101 -0.197311
-0.117388 -0.178254 -0.265931
-0.0945145 -0.547217 0.405014
0.309502 -0.238829 0.405014
0.141841 0.0979491 -0.380296
-0.36763 0.226258 0.183907
-0.390607 0.56173 -0.0829459
0.39926 -0.81828 -0.304053
0.462064 -0.0242901 -0.258306
-0.35512 0.622725 -0.220185
0.00460225 -0.0129058 -0.365047
0.362947 0.0978641 0.420262
-0.292748 -0.0129058 -0.0676972
-0.155509 -0.261702 0.377358
-0.222177 -0.0329707 0.305897
-0.361367 0.432116 0.202991
-0.201256 0.523608 -0.405133
-0.307997 -0.0129058 0.107663
-0.186007 -0.547411 0.374516
0.431719 -0.726788 0.32877
-0.170758 -0.547637 0.298272
-0.178383 0.119517 0.387806
-0.273219 0.454989 0.0085465
0.466911 0.0203999 -0.235433
0.187587 0.0979491 0.38214
0.0579728 0.0979491 -0.311677
0.347699 -0.810656 0.30114
0.340074 -0.757286 0.272575
-0.239377 0.211009 0.180528
-0.20996 -0.505681 -0.357423
-0.30058 0.38637 -0.326926
-0.201256 -0.200707 0.408505
0.0350997 -0.00247319 -0.424055
-0.285895 0.00515117 -0.349799
0.466911 0.0585217 -0.0295753
-0.390606 0.637974 0.0847902
0.149465 -0.0129058 0.0542927
0.0122266 -0.0129058 0.199156
-0.247002 0.775671 0.275399
0.466911 0.0585217 -0.166814
0.134216 0.0979491 0.397389
-0.147544 0.569354 0.32877
-0.315258 0.279628 0.305897
0.225709 0.0979491 0.298272
0.431269 -0.749661 0.336394
0.439191 -0.260798 -0.380296
0.462064 -0.0242901 -0.304053
-0.334433 0.0280243 -0.265931
-0.338059 0.249131 -0.258306
0.408694 -0.789251 0.283024
-0.140261 -0.179956 0.260151
-0.315621 0.233882 -0.303482
0.15709 0.0979491 -0.258306
0.202836 0.0979491 -0.380296
0.370572 0.0979491 -0.304053
0.445055 -0.513306 -0.357423
-0.132636 -0.0129058 -0.0829459
-0.162527 0.393994 -0.372672
0.317201 -0.46756 0.409084
0.370572 -0.589549 0.306193
-0.261177 0.56173 0.107663
-0.147544 0.134765 0.32877
-0.156862 -0.429438 0.32877
-0.132636 -0.337945 0.306193
-0.277499 0.576979 0.364368
-0.170758 0.0979491 0.405014
-0.208533 0.355872 0.244902
-0.147885 -0.546333 -0.403169
0.420385 -0.787783 0.351643
0.279079 -0.0129058 0.122912
-0.158257 -0.154961 -0.304053
0.385821 -0.787783 -0.38265
-0.153431 0.691344 0.366892
0.393445 -0.0129058 -0.0143266
-0.155509 -0.0787169 -0.30279
-0.117388 -0.551178 0.366892
-0.102139 -0.0129058 0.222029
0.466911 0.0280243 0.000922135
-0.270798 0.378745 -0.0448241
0.149465 0.0978641 -0.418418
0.362947 0.0979491 -0.33455
-0.161788 -0.612423 -0.311677
0.347699 -0.811129 0.321146
0.0274753 -0.00247319 0.425899
0.394442 -0.383692 -0.357423
-0.280977 0.630349 -0.357423
-0.160325 0.287253 0.313521
-0.353743 0.752339 0.225847
-0.362626 0.538857 0.199156
-0.269875 0.569354 0.0605618
-0.254626 0.775671 0.32877
-0.341685 0.706593 -0.250682
-0.268515 0.523608 0.0695414
-0.102139 -0.46756 -0.405627
-0.277499 -0.0129058 0.168658
0.357449 -0.147336 0.313521
-0.161789 -0.0939656 -0.326926
-0.285124 0.775671 0.0542927
0.126592 -0.0129058 -0.319301
0.408694 -0.0463302 -0.243058
0.225709 -0.0129058 -0.220185
-0.361367 0.775671 -0.105819
0.195211 0.0979491 0.313521
-0.155509 0.729466 -0.36679
-0.305475 0.546481 -0.319301
-0.0563927 -0.0129058 0.138161
-0.256609 0.515984 0.389765
-0.247002 -0.0129058 -0.0600728
-0.377266 0.660847 0.153409
0.103719 -0.0129058 0.168658
0.423942 0.0979491 -0.288804
-0.223871 0.68372 0.214404
-0.155509 0.0979491 0.222029
-0.269391 0.279628 -0.372672
-0.181868 -0.795407 -0.304053
-0.171624 0.134765 -0.380296
-0.300372 -0.0129058 0.191531
-0.273679 0.188136 0.000922135
-0.380328 0.493111 -0.136316
-0.245927 0.523608 -0.15919
-0.271282 0.302501 0.039044
0.378196 0.0890192 0.425898
0.416318 -0.260979 0.313521
-0.186007 0.68372 0.279987
0.342118 -0.803032 -0.319301
-0.186007 -0.780159 -0.383569
-0.391781 0.38637 -0.0753215
-0.0886694 -0.696291 0.344019
-0.30058 0.714217 0.32877
-0.132636 0.0979491 -0.235433
-0.368992 0.706593 0.179758
-0.155509 -0.260979 -0.273555
-0.0487683 -0.0129058 -0.197311
-0.102139 -0.789228 0.283024
-0.0106465 -0.0129058 0.122912
-0.147885 -0.0463331 -0.418418
-0.396234 0.416867 -0.00670223
-0.0792658 -0.46756 -0.40548
-0.141153 0.19576 -0.33455
-0.178383 0.454989 -0.289664
0.324826 -0.513306 -0.255777
-0.323554 0.676095 -0.288804
0.439191 -0.0471378 -0.258306
-0.353743 0.637974 0.225847
-0.254626 0.729466 -0.132679
-0.231753 0.0979491 -0.0524484
-0.147885 -0.0129058 0.0619171
-0.285124 0.211009 0.352844
0.347699 -0.215955 0.257614
0.21046 -0.0129058 -0.365047
-0.205045 -0.200707 0.275399
-0.0792658 -0.0471378 -0.410794
-0.224129 -0.0166701 0.237278
-0.0792658 -0.482808 -0.405591
0.334573 -0.681042 -0.296428
-0.186007 0.233882 0.394196
0.362947 -0.154961 0.36049
-0.362626 0.0280243 0.199156
-0.262251 0.043273 0.383034
0.396481 -0.391316 0.32877
-0.33087 0.127141 0.275266
-0.227104 -0.0253463 -0.395545
0.0579728 0.0979491 -0.227809
-0.285124 0.775671 0.0085465
-0.224129 -0.0129058 0.0237952
-0.147885 -0.260979 -0.387921
-0.153431 0.447364 -0.365047
-0.109763 -0.76491 -0.389141
-0.352341 0.622725 -0.227809
-0.163134 -0.0129058 0.161034
0.385821 0.0979491 0.366892
-0.0258952 -0.0129058 -0.0600728
-0.0716414 0.0979491 0.039044
-0.0858078 -0.76491 0.351643
-0.153431 0.607476 -0.365047
0.385821 -0.0129058 -0.0143266
-0.377266 0.630349 0.153409
0.347699 -0.0129058 0.122912
0.309267 -0.505681 0.290648
-0.0487683 0.0979491 0.344019
-0.163134 -0.810656 0.370102
-0.254626 0.363496 -0.390286
-0.37886 0.485486 0.145785
0.279079 0.0979491 0.191531
-0.125012 0.0979491 0.000922135
-0.277499 0.637974 0.364368
0.256206 0.0585217 -0.424055
-0.248429 0.454989 0.153409
0.423942 -0.0129058 0.161034
0.362947 -0.406565 -0.304555
-0.0868902 -0.178254 -0.380296
-0.0792658 -0.193082 0.257622
-0.102139 -0.547411 -0.265931
-0.0949529 -0.681042 0.32877
0.385821 0.0979491 0.38214
0.111343 0.0979491 0.260151
-0.368992 0.775671 -0.113443
0.294328 -0.0448794 0.359267
-0.0335196 -0.0129058 -0.296428
-0.33087 0.706593 0.275266
0.446816 0.0979491 -0.128692
0.431567 -0.178254 -0.265931
-0.38424 0.0585217 -0.116002
0.0732215 -0.0129058 -0.00670223
-0.270798 0.272004 0.0466683
0.309577 -0.544341 -0.395545
-0.109763 -0.0129058 -0.105819
0.385821 -0.139712 0.360584
0.357434 -0.292199 0.321146
-0.125012 -0.175317 0.298272
0.141841 0.0979491 0.267775
-0.346119 0.104268 -0.241359
0.308861 -0.246453 0.283024
0.444874 -0.46756 -0.349799
-0.391781 0.0280243 -0.0753215
0.21046 -0.0129058 -0.349799
-0.391781 0.310126 0.0771658
0.233333 0.0979491 0.321146
-0.117388 0.0979491 -0.365047
0.416318 -0.703915 -0.272881
-0.35512 0.119517 -0.220185
-0.0106465 -0.0129058 -0.0448241
-0.239377 0.0508974 0.410323
-0.140261 -0.0129058 -0.0753215
0.393445 -0.711539 0.39378
-0.247002 0.0890192 0.401226
-0.135038 0.477862 -0.342174
-0.224129 0.233882 -0.423285
0.340074 -0.505681 -0.406931
-0.155509 -0.437062 -0.357032
0.370572 -0.261702 0.377564
-0.269875 0.775212 0.368313
0.347699 -0.547411 -0.288804
-0.00302212 -0.0129058 -0.0981946
-0.389138 0.310126 -0.0905703
-0.394781 0.622725 0.0314196
0.362947 -0.0129058 -0.220185
0.462064 -0.0242901 0.359267
-0.247002 0.759963 -0.399382
-0.338494 0.775671 -0.0676972
-0.254626 0.272004 0.134523
-0.262251 0.500735 -0.38119
-0.348937 0.607476 0.237278
0.393445 -0.559052 0.30406
-0.210361 -0.208331 -0.387921
-0.346119 0.0966436 0.243203
-0.231753 0.447364 0.197831
0.431567 0.0979491 -0.113443
0.347699 -0.749661 0.271407
-0.248429 0.249131 0.153409
0.141841 -0.0129058 -0.151565
0.362947 -0.742037 0.395961
0.357435 -0.406565 0.351643
-0.220245 0.569354 -0.220185
-0.216504 0.0979491 -0.136316
0.309577 -0.183177 -0.372672
0.423942 -0.0471378 -0.395545
0.378196 0.043273 0.425899
-0.338494 0.691344 -0.25739
-0.170758 0.43974 0.301073
0.256206 0.0979491 -0.136316
-0.104652 -0.0482194 0.32877
0.00460225 -0.0129058 0.176283
0.431567 0.0979491 -0.197311
-0.0563927 0.0979491 0.222029
-0.32718 0.332999 -0.281179
-0.041144 -0.0149858 0.359267
0.256206 0.0737705 0.425899
0.292121 -0.0329707 0.260151
0.309577 0.0979491 0.275399
0.355323 0.0508974 -0.424055
-0.210029 -0.543803 -0.311677
-0.201256 0.493111 -0.254393
0.271455 0.0979491 0.0161709
0.370572 -0.0634681 0.360584
0.362947 0.0979491 -0.166814
0.164714 0.0979491 0.0466683
-0.00302212 0.0979491 0.0695414
-0.394781 0.226258 0.0314196
0.134216 0.0979491 -0.174438
0.378196 -0.780159 0.278946
-0.0563927 0.0979491 -0.189687
-0.201256 0.424491 -0.405133
-0.300372 0.310126 0.329093
-0.20888 0.775628 -0.258306
-0.194984 -0.711539 -0.304053
-0.190057 -0.711539 0.305897
-0.193631 -0.0471368 0.267775
-0.216504 0.691344 0.229892
-0.352341 0.211009 -0.227809
0.00460225 -0.0129058 0.0924145
0.466911 0.0203999 0.0924145
-0.31987 0.569354 0.298272
-0.125012 0.0979491 0.145785
-0.140261 0.477862 0.337459
-0.267051 0.26438 -0.0753215
-0.254626 -0.0129058 0.122912
-0.216504 -0.0471378 -0.372672
0.33245 -0.0129058 -0.128692
-0.216504 0.180512 0.229892
-0.345311 0.462613 -0.243058
-0.262251 0.706593 -0.38119
0.431567 0.0979491 0.107663
0.0579728 -0.0129058 0.214404
-0.125012 -0.178254 -0.395545
0.409626 -0.459935 -0.311677
0.408694 0.0979491 0.229653
-0.231753 0.0979491 -0.128692
-0.140261 0.653222 0.35585
0.317201 -0.246453 0.409157
-0.125012 -0.82879 -0.357423
-0.216504 0.188136 0.229892
-0.179024 0.698969 -0.288804
-0.305475 0.43974 0.321146
0.103719 -0.0129058 0.412638
0.466911 0.0813948 0.0771658
0.385821 -0.459935 -0.293279
0.294328 0.0979491 -0.235433
0.445056 -0.246453 0.336394
0.432222 -0.734412 -0.380296
-0.262251 0.355872 -0.100245
-0.162527 0.538857 0.374516
-0.0945145 -0.498057 0.409158
-0.386201 0.157639 0.107663
0.416318 -0.547411 0.374516
0.0350997 -0.0129058 0.0237952
-0.305475 0.157639 -0.319301
-0.267165 0.775212 -0.105819
0.0960947 0.0280243 -0.424055
-0.0695145 -0.490433 0.351643
-0.0258952 0.0979491 -0.380296
-0.285124 0.43974 -0.351
0.393445 -0.147336 0.360098
-0.193631 -0.178254 0.351643
-0.386202 0.241507 -0.105819
-0.224129 0.0979491 0.0314196
-0.269875 -0.0129058 -0.0295753
0.286704 -0.0157521 0.412638
-0.393813 0.218633 0.0466683
0.400148 -0.81828 0.313521
-0.0487683 0.0979491 -0.0448241
0.291572 -0.0253463 0.38214
-0.238108 0.188136 0.183907
0.301953 0.0979491 -0.0295753
0.378196 -0.0482194 0.376006
-0.262645 0.744715 -0.0981946
-0.201256 0.775671 -0.296428
-0.272735 0.56173 -0.0143266
0.423942 -0.040595 0.425864
-0.117388 -0.528554 -0.254158
-0.216504 -0.04692 0.321146
0.218085 -0.0129058 0.20678
0.444659 -0.505681 -0.357423
-0.383265 0.0966436 -0.121068
0.423942 -0.0129058 0.000922135
-0.231002 0.0508974 0.420262
0.378196 -0.132087 -0.30435
0.126592 0.0979491 0.0924145
0.118968 0.0979491 0.153409
-0.345311 0.119517 0.244902
-0.394297 0.332999 -0.0371997
-0.102139 -0.238829 -0.254529
0.347699 -0.177834 0.371778
0.393445 -0.55143 -0.365047
-0.179024 0.531232 -0.288804
0.301953 -0.0471378 0.38214
-0.300372 0.287253 0.329093
-0.269875 -0.0128836 0.359267
-0.162527 0.226258 -0.372672
-0.125012 0.0979491 -0.143941
0.103719 -0.0129058 -0.113443
-0.393329 0.714217 -0.0524484
-0.285124 0.0661461 0.352844
-0.201256 0.454989 0.256237
-0.269875 0.775671 0.153409
-0.231753 0.462613 -0.195987
0.301953 0.0979491 0.305897
-0.37886 0.378745 0.145785
-0.0863476 -0.703915 0.344019
-0.269875 0.310126 -0.372094
0.172338 0.0979491 -0.15919
0.370572 -0.0129058 -0.204936
-0.147885 -0.0471378 -0.410794
0.396481 -0.383692 0.344019
-0.255934 0.302501 0.130536
-0.0945145 -0.0329707 -0.237427
-0.00302212 -0.0129058 -0.250682
-0.239377 0.714217 -0.178683
-0.376616 0.637974 0.155773
0.286704 0.0979491 -0.0981946
0.445054 -0.193082 0.344019
0.334573 -0.681042 -0.365047
-0.147885 0.287253 -0.360399
-0.269875 0.180512 0.0605618
0.360689 -0.391316 -0.357423
0.393445 -0.551428 -0.297219
-0.193631 -0.178254 -0.311677
0.324826 -0.178254 0.321146
0.431567 -0.0471378 0.283024
-0.122758 -0.322697 -0.349799
0.292121 -0.0329707 -0.372672
-0.389138 0.523608 -0.0905703
-0.270798 0.371121 0.0466683
-0.224129 0.104268 0.425227
0.370572 -0.833529 0.306193
-0.262251 0.424491 -0.38119
-0.353743 0.584603 0.225847
-0.153934 0.576979 -0.319301
0.256206 0.0979491 0.275399
-0.188952 0.233882 0.275399
-0.132636 -0.528554 -0.254158
0.416318 -0.185458 -0.407314
-0.370132 0.348248 0.176283
0.33245 -0.231204 -0.407316
0.288678 -0.0177219 0.344019
0.378196 -0.85686 0.351643
-0.238108 0.165263 0.183907
-0.372634 0.211009 -0.166814
-0.0182709 -0.0129058 0.359267
0.362947 -0.0484443 -0.372672
0.445048 -0.254077 0.366892
-0.183218 0.111892 -0.281179
0.317201 -0.0129058 0.0085465
0.401069 -0.0129058 0.0542927
0.360689 -0.574301 0.359267
-0.0182709 0.0979491 -0.0371997
-0.19026 -0.757286 0.389765
-0.307997 0.554106 -0.315373
0.357435 -0.566676 0.351643
-0.238108 0.485486 -0.182063
0.324826 -0.193082 -0.407313
-0.041144 -0.0129058 0.0847902
0.419345 -0.681042 0.336394
0.294328 0.0979491 0.161034
0.370572 -0.810656 0.370587
0.0274753 0.0979491 -0.380296
0.218085 -0.0129058 0.039044
0.340074 -0.789088 0.283024
-0.20888 -0.0471378 -0.380296
-0.20888 0.775671 -0.357423
0.103719 -0.0129058 0.374516
-0.220245 0.637974 -0.220185
-0.224129 0.099794 -0.189687
0.355323 -0.176267 0.298272
-0.144335 0.363496 -0.357423
-0.0879478 -0.772534 0.313521
-0.292748 0.775671 0.122912
0.111343 0.0979491 0.321146
-0.265582 0.508359 0.0847902
0.126592 0.0813948 -0.424055
-0.0258952 0.0979491 0.229653
-0.275643 0.775212 0.0619171
-0.155509 0.660847 0.368634
-0.193848 0.653222 0.267775
-0.338494 -0.0129058 -0.0676972
0.301953 0.0585217 -0.424055
0.355323 0.0979491 0.366892
0.340074 -0.0471378 -0.380296
-0.391865 0.294877 -0.0742302
-0.0182709 -0.0129058 0.100039
-0.201256 0.371121 0.256237
-0.163134 -0.0129058 -0.151565
-0.122743 -0.376067 -0.33455
0.394442 -0.444686 -0.357423
-0.173059 0.470238 -0.296428
-0.186007 0.531232 0.279987
-0.285124 0.775671 -0.273555
0.322198 -0.726788 -0.372672
-0.269391 0.0203999 -0.372672
-0.153934 0.599852 0.321146
0.240958 -0.0129058 0.38214
-0.394297 0.637974 0.039044
0.308852 -0.528554 -0.311677
-0.117388 -0.528554 0.409168
-0.269875 0.26438 0.0605618
-0.305475 0.523608 -0.319301
-0.272251 0.241507 -0.021951
0.439191 -0.260798 -0.33455
0.263831 -0.0129058 -0.326926
-0.125012 -0.46756 0.409087
-0.186007 -0.0129058 0.0695414
-0.338494 0.409243 -0.25739
0.431567 -0.178254 0.321146
0.355323 -0.0129058 -0.197311
-0.193848 0.150014 0.267775
-0.391781 0.73709 -0.0753215
0.378196 -0.421813 0.360584
-0.140261 -0.262188 -0.288804
-0.365128 0.630349 -0.189687
0.356611 -0.825905 0.32877
-0.197165 -0.742037 -0.380296
-0.193631 0.043273 -0.424055
0.00460225 -0.0129058 0.32877
0.385821 0.0661461 0.425899
0.187587 0.0203999 -0.424055
0.0579728 -0.0129058 0.0237952
-0.147885 -0.0939656 0.360583
0.324826 -0.462129 -0.387921
-0.375136 0.607476 -0.15919
-0.362626 0.416867 -0.197311
-0.338059 0.0966436 -0.258306
-0.31037 0.0280243 0.313521
-0.109763 0.00515117 0.425899
-0.117388 -0.0471368 0.397389
0.187587 0.0979491 0.229653
0.0808459 0.0979491 0.039044
-0.147885 0.432116 -0.360399
-0.217113 0.477862 0.420262
0.271455 0.0979491 -0.151565
-0.193797 -0.76491 -0.342174
-0.222177 -0.0329707 0.366892
-0.238108 0.150014 0.183907
-0.186007 -0.193082 -0.405706
0.019851 0.0356486 -0.424055
0.355323 -0.246453 0.40916
-0.372634 0.180512 -0.166814
-0.178383 0.691344 -0.289664
0.362947 -0.0129058 0.161034
-0.394781 0.607476 0.0314196
-0.0106465 -0.0129058 -0.265931
0.233333 -0.0129058 0.359267
0.411844 -0.803032 0.313521
-0.155509 -0.0129058 -0.128692
-0.254626 0.599852 -0.390286
-0.0640171 0.0979491 -0.395545
-0.173059 0.416867 -0.296428
-0.109763 -0.547411 -0.265931
0.179963 0.0979491 0.20678
-0.125012 -0.813256 -0.365047
-0.277499 0.462613 0.364368
-0.170758 0.180512 0.381415
-0.362626 -0.00247319 -0.197311
0.396518 -0.27695 -0.319301
-0.300372 0.775671 0.0695414
-0.392845 0.691344 -0.0600728
-0.0868902 0.0979491 -0.00670223
-0.208533 0.622725 -0.243058
0.33245 -0.772534 -0.388323
-0.117388 -0.654263 -0.349799
0.111343 0.0979491 0.351643
0.408694 0.0979491 0.168658
-0.0868902 -0.208331 -0.405706
-0.295685 0.150014 -0.33455
0.33245 -0.208331 -0.255777
-0.391781 0.401618 -0.0753215
-0.0945145 -0.0463331 -0.418418
0.354778 -0.559052 0.344019
-0.346119 0.538857 0.243203
-0.315258 0.416867 -0.304053
-0.102139 -0.0129058 -0.105819
0.33245 -0.757286 -0.270731
-0.0792658 0.0979491 -0.182063
0.423692 -0.780159 0.366892
0.431567 -0.462129 0.305897
0.39648 -0.154961 -0.349799
0.370572 -0.581925 -0.358739
-0.170758 0.470238 -0.299229
0.362947 -0.284575 0.306397
0.309577 -0.536179 0.260022
-0.194984 -0.711539 -0.296428
0.279079 -0.0129058 0.100039
-0.117388 -0.0471378 -0.265931
-0.295685 0.363496 -0.33455
-0.117388 -0.259171 -0.403169
-0.259709 0.538857 -0.113443
-0.147885 -0.66578 0.374516
-0.268515 0.607476 0.0695414
-0.259709 0.348248 0.115288
0.430088 -0.719164 -0.273555
-0.231753 0.660847 -0.195987
-0.243425 0.73709 0.168658
0.401069 -0.0541107 -0.319301
-0.361367 -0.0129058 0.0771658
0.445054 -0.193082 0.374516
-0.147885 0.775212 0.359354
0.408694 -0.461033 0.366892
-0.163134 0.424491 0.375024
0.355323 -0.559052 0.311994
0.347699 -0.178866 0.405014
-0.20888 0.0979491 -0.0600728
-0.132636 -0.360818 0.306193
-0.395749 0.00515117 -0.0143266
-0.144335 0.150014 -0.357423
0.370572 -0.0129058 -0.15919
-0.307997 0.508359 -0.315373
-0.0498173 -0.0253463 0.38214
-0.135524 0.14239 -0.349799
0.378196 0.0813948 -0.424055
0.385821 -0.208331 -0.255777
-0.188952 0.645598 -0.273555
-0.109763 0.0979491 0.130536
0.256206 0.0979491 -0.0371997
-0.307997 0.660847 -0.315373
-0.193631 0.592227 -0.266268
-0.391781 0.645598 -0.0753215
-0.208533 0.127141 0.244902
0.385821 -0.856861 0.32877
0.378196 -0.238829 0.257991
0.466911 0.0813948 0.366892
0.134216 0.0661461 0.425899
0.33245 -0.0471378 0.397389
-0.216504 0.775526 -0.243058
0.172338 -0.0129058 -0.265931
0.256206 -0.0129058 -0.357423
-0.295685 0.43974 0.336394
-0.0949588 -0.681042 0.290648
-0.396234 0.043273 -0.00670223
0.324826 -0.762072 0.336394
-0.305475 0.660847 -0.319301
-0.147885 -0.260979 -0.265931
-0.237437 0.165263 0.412638
-0.132636 -0.178254 -0.395545
0.396481 -0.34557 0.321146
0.187587 0.0979491 -0.136316
-0.38767 0.531232 0.100039
0.271455 0.0979491 -0.410794
-0.178383 -0.00247319 0.425899
-0.153431 0.218633 -0.365047
-0.125012 -0.269326 -0.300631
-0.0945145 -0.462129 -0.326926
-0.163134 -0.696291 -0.386279
-0.155509 0.462613 -0.36679
-0.361367 -0.0129058 0.0085465
0.179963 -0.0129058 0.0466683
0.286704 -0.0129058 -0.204936
-0.368992 0.355872 0.179758
-0.0640171 -0.0329707 0.240879
-0.193631 -0.0471368 0.252526
-0.224129 -0.0268682 0.313521
0.309577 -0.254077 -0.403883
0.401069 -0.215955 0.257614
-0.231002 0.0661461 -0.418418
-0.231123 0.38637 0.199156
0.347699 -0.0471378 -0.410794
-0.108803 -0.665793 -0.319301
-0.0741695 -0.498057 -0.372672
-0.155509 0.111892 0.318526
0.0350997 -0.0129058 0.389765
0.288678 -0.0177219 -0.395545
-0.32718 0.470238 0.283024
-0.188952 0.371121 0.275399
-0.152737 0.111892 -0.365047
0.33245 0.0978641 -0.418418
-0.389138 0.409243 0.0924145
-0.357622 0.294877 -0.21256
-0.38767 0.68372 -0.0981946
-0.122743 -0.627671 -0.319301
-0.38767 0.698969 0.100039
0.362947 -0.0100976 -0.424055
0.271455 -0.0129058 -0.349799
-0.147885 -0.841154 -0.357131
0.466911 0.0127755 -0.151565
0.294328 0.0979491 0.100039
-0.33087 0.538857 -0.273422
0.149465 0.0127755 -0.424055
0.317201 -0.0129058 -0.15919
-0.0693234 -0.46756 0.374516
-0.178383 0.38637 0.291508
-0.153439 0.767588 0.366892
-0.396234 0.0203999 0.0085465
-0.0792658 0.0979491 0.222029
-0.216619 0.31775 -0.227809
0.385821 -0.581925 -0.30435
-0.250218 0.19576 -0.395545
-0.200231 0.775212 -0.265931
-0.0745377 -0.238829 -0.372672
-0.334433 0.576979 0.267775
0.309577 0.0979491 0.313521
-0.216504 0.569354 -0.228048
-0.0868902 -0.0471378 -0.265931
0.308856 -0.215955 0.321146
-0.163134 0.706593 0.31017
-0.0945145 0.0356486 -0.424055
-0.250218 0.569354 -0.395545
0.308854 -0.482808 0.366892
-0.20888 -0.0129058 -0.0448241
0.0350997 -0.0129058 0.344019
-0.352341 0.493111 0.229653
-0.243827 0.515984 -0.403169
-0.179024 0.249131 -0.288804
0.340074 -0.0150776 0.229653
0.431567 -0.513306 0.257621
-0.215609 0.111892 0.229653
-0.262251 0.43974 0.102089
0.21046 0.0979491 -0.0676972
-0.135524 0.332999 -0.349799
0.0960947 0.0979491 -0.197311
0.416318 -0.528554 -0.407324
-0.109763 -0.260285 0.405014
-0.269875 0.348248 -0.0587175
-0.147544 0.218633 -0.326926
-0.0258952 -0.0129058 -0.372672
-0.179024 0.401618 -0.288804
-0.179024 0.691344 0.290648
-0.201256 -0.547221 0.359267
0.463947 0.0966436 0.176283
-0.0945145 -0.0471368 0.290648
-0.109763 -0.547411 -0.387921
-0.300372 0.454989 0.329093
-0.323246 0.775659 0.275399
-0.29079 0.424491 0.344019
0.416318 -0.0129058 0.0542927
-0.074152 -0.536179 -0.365047
-0.365128 0.43974 0.191531
-0.31987 0.38637 0.298272
0.445062 -0.215955 -0.326926
-0.394781 0.0280243 -0.0295753
-0.368992 -0.0129058 -0.021951
-0.155509 -0.0177219 -0.230076
-0.277499 0.775671 0.145785
0.256206 0.0979491 0.344019
0.416318 -0.0129058 0.20678
-0.224129 0.775671 0.252526
-0.0945145 -0.260979 -0.273555
0.446816 -0.0150776 -0.227809
0.327569 -0.772534 0.321146
0.0579728 0.0979491 0.161034
0.263831 0.0979491 -0.0981946
0.118968 -0.0129058 0.229653
-0.178383 -0.200707 -0.405306
-0.140261 -0.178254 -0.387921
-0.33087 0.43974 -0.273422
-0.166715 0.691344 0.305897
-0.179024 0.515984 0.290648
-0.391865 -0.0123875 -0.0295753
-0.193631 0.0979491 -0.143941
0.164714 0.043273 -0.424055
-0.254626 0.508359 0.134523
0.0274753 -0.0129058 0.191531
-0.248429 0.424491 0.153409
-0.271282 0.310126 -0.0371997
-0.254626 0.104694 0.122912
-0.140261 -0.795407 -0.282655
-0.37886 0.00515117 -0.143941
-0.216619 0.622725 -0.227809
-0.177116 -0.803032 -0.311677
0.118968 0.0813948 -0.424055
-0.37886 0.729466 0.145785
-0.338494 0.729466 -0.25739
-0.250931 0.332999 -0.143941
-0.0792658 -0.0471368 0.313521
-0.147885 -0.612423 -0.357131
-0.0692411 -0.246453 0.313521
-0.0258952 0.0979491 -0.296428
0.21046 -0.0129058 0.168658
0.0503484 -0.0129058 0.275399
-0.140261 0.310126 0.337459
-0.271766 0.378745 0.0314196
-0.263 0.0356486 -0.380296
-0.292748 0.546481 0.340968
0.0579728 0.0979491 -0.33455
-0.193797 -0.76491 -0.349799
-0.300372 -0.0129058 -0.281179
-0.254626 0.706593 0.134523
0.399332 -0.452311 0.351643
0.45444 -0.0129058 0.0161709
-0.227497 0.332999 -0.204936
0.248582 0.0979491 -0.00670223
0.233333 -0.0129058 -0.235433
0.309577 -0.0471378 0.38214
0.378196 0.0979491 0.130536
-0.147885 0.462613 -0.326518
0.445073 -0.52093 -0.365047
-0.178383 -0.22358 -0.405411
0.317201 0.0979491 0.222029
-0.188952 0.363496 0.275399
-0.338494 -0.0129058 -0.0905703
-0.273679 0.180512 0.000922135
0.21046 0.0979491 -0.0981946
0.134216 -0.00247319 -0.424055
-0.17488 -0.0482194 -0.326926
-0.155674 -0.124463 0.359267
-0.173059 0.409243 0.298272
0.0122266 0.0127755 -0.424055
-0.109763 -0.463894 -0.403169
-0.088165 -0.719164 -0.326926
0.134216 -0.0129058 0.336394
-0.346119 0.043273 -0.241359
0.401069 -0.185458 0.25762
-0.155509 -0.040595 0.240913
-0.147885 0.622725 0.328363
0.240958 -0.0129058 -0.403169
-0.247002 0.332999 -0.399382
0.256206 0.0979491 0.305897
0.256206 0.0979491 -0.182063
-0.0640171 0.00515117 -0.424055
-0.121456 -0.559052 -0.342174
0.362947 -0.238829 -0.256146
-0.201256 0.660847 0.406977
-0.186007 -0.260979 -0.387921
0.0960947 0.0737705 -0.424055
-0.108708 -0.810656 0.298272
-0.0692411 -0.246453 0.283024
-0.393329 0.599852 -0.0524484
-0.140261 0.256755 -0.354006
-0.231753 0.698969 0.197831
0.393445 -0.547411 -0.273555
0.263831 -0.0129058 0.100039
-0.201256 -0.0129058 -0.174438
-0.381796 -0.00247319 0.130536
0.195211 -0.0100976 0.424318
0.431567 -0.260979 0.290648
-0.31987 0.554106 -0.296428
0.357434 -0.0710925 -0.342174
0.357434 -0.833529 -0.326926
0.0122266 0.0979491 0.298272
-0.0182709 0.0978641 -0.418418
-0.205453 -0.52093 0.275399
-0.201256 0.0979491 0.20678
-0.144335 0.676095 -0.357423
0.347699 -0.673417 -0.377603
0.309191 -0.543803 -0.349799
-0.0106465 -0.0129058 -0.0524484
-0.178383 0.615101 0.291508
-0.258094 0.188136 0.122912
-0.30058 0.249131 -0.326926
-0.193631 0.0979491 -0.197311
-0.227497 0.287253 -0.204936
-0.186007 0.302501 0.394196
0.444781 -0.490433 -0.365047
-0.224129 0.447364 0.213863
-0.178383 -0.0471368 0.351643
-0.395749 0.485486 -0.0143266
0.401069 -0.178254 -0.265931
0.347699 -0.260979 0.38214
-0.300372 0.500735 0.329093
-0.0335196 -0.0129058 -0.235433
0.134216 0.0813948 0.425899
0.462064 0.0977931 -0.166814
-0.155509 0.0979491 0.039044
-0.135038 0.454989 -0.342174
-0.383265 0.493111 -0.121068
-0.147544 0.56173 0.32877
-0.250931 0.226258 -0.143941
-0.224129 0.729466 -0.212019
-0.179024 0.348248 -0.288804
-0.295685 0.576979 0.336394
0.309577 -0.0129058 -0.151565
-0.189019 -0.780159 -0.296428
-0.33087 0.287253 0.275266
-0.269875 -0.0129058 -0.0981946
-0.117816 -0.39894 0.336394
-0.247002 0.645598 -0.155914
-0.209983 -0.238829 -0.288804
0.202836 0.0979491 -0.372672
-0.216504 0.775671 0.283024
-0.141153 0.233882 -0.33455
0.308863 -0.498057 0.359267
0.111343 -0.0128245 -0.418418
0.408694 -0.246453 -0.407316
-0.330806 0.0127755 0.275399
0.385821 -0.154961 -0.358739
-0.280977 0.157639 -0.357423
-0.220245 0.294877 0.222029
-0.239377 0.279628 0.180528
0.141841 0.0979491 -0.357423
-0.254626 0.0979491 0.0085465
0.462064 0.0977931 -0.15919
0.378196 -0.0253463 -0.236354
0.444651 -0.200707 0.359267
-0.267051 0.188136 0.0771658
-0.38424 0.302501 0.117845
-0.368992 0.0890192 -0.177914
0.362947 -0.696291 0.277047
-0.0258952 0.0979491 0.0924145
-0.193631 -0.259163 0.260151
0.340074 -0.701669 -0.273555
-0.156861 -0.64292 0.351643
-0.270314 0.668471 -0.0524484
0.202836 -0.0129058 -0.258306
-0.160325 0.554106 -0.311677
0.416318 -0.547411 -0.342174
0.15709 -0.0129058 0.32877
0.0122266 -0.0128245 0.420262
-0.35512 0.0737705 -0.220185
-0.132636 -0.179948 -0.403169
-0.323554 0.127141 0.290648
-0.125012 -0.322697 -0.303476
-0.277499 -0.0129058 -0.326926
-0.0868902 -0.742037 0.395341
-0.140261 -0.22358 -0.254458
-0.26978 0.515984 -0.0600728
0.357236 -0.64292 -0.326926
0.360689 -0.597174 -0.357423
-0.163134 -0.772534 0.276325
0.357435 -0.589549 0.351643
-0.0945145 -0.0100976 0.425899
0.019851 -0.0129058 0.0619171
-0.370132 0.424491 0.176283
-0.147544 0.676095 -0.326926
0.240958 0.0979491 -0.143941
-0.35512 0.111892 -0.220185
-0.280977 0.00515117 0.359267
-0.254626 -0.0129058 -0.113443
-0.132636 -0.831171 -0.357423
-0.292748 0.508359 -0.339124
-0.295685 0.104268 0.336394
-0.074152 -0.475184 -0.265931
-0.295685 0.393994 -0.33455
0.294328 0.0979491 0.283024
-0.345311 0.38637 0.244902
-0.262251 0.775671 -0.189687
-0.20888 0.523608 0.244321
0.416318 -0.260979 -0.357423
-0.238108 0.233882 0.183907
-0.216504 -0.0129058 0.000922135
0.416318 -0.742037 -0.268973
-0.0640171 0.0979491 -0.174438
-0.0792658 0.0979491 -0.204936
0.111343 -0.0129058 -0.204936
0.308863 -0.498057 -0.281179
-0.338494 0.775671 -0.182063
-0.178383 -0.0129058 0.161034
-0.248429 0.508359 -0.151565
-0.132636 -0.147336 0.306193
0.263831 -0.0129058 -0.0905703
-0.186007 0.775671 -0.311677
0.347699 -0.0129058 0.0619171
-0.163134 -0.0518015 0.336394
0.466911 0.0508974 0.344019
-0.203638 0.660847 0.252526
-0.370132 0.508359 -0.174438
-0.273219 0.348248 0.0085465
-0.117388 -0.548333 0.374516
-0.184057 0.119517 -0.281179
0.286704 -0.0129058 -0.021951
-0.170758 0.538857 -0.299229
0.019851 -0.0129058 0.0695414
-0.198749 0.767588 0.260151
-0.109763 -0.0475333 -0.296428
0.370572 -0.231204 -0.407316
-0.162527 0.19576 0.374516
0.324826 -0.179956 -0.258306
-0.163134 -0.174191 0.359267
-0.147885 0.637974 -0.326518
-0.323246 0.775671 0.039044
-0.0335196 -0.0129058 -0.258306
-0.0792658 -0.0129058 0.138161
-0.193848 0.272004 -0.265931
-0.247002 0.576979 -0.155914
0.0808459 -0.0129058 -0.204936
0.347699 -0.774529 0.389765
0.263831 0.0979491 -0.113443
-0.292748 0.310126 -0.339124
-0.361367 0.775671 0.0085465
-0.277499 -0.0100976 -0.36167
0.347699 0.0979491 0.161034
-0.184057 0.332999 -0.281179
0.39648 -0.376067 -0.349799
-0.231753 0.775212 -0.409141
-0.155509 -0.260285 0.405014
-0.346119 -0.00247319 0.243203
0.225709 0.0979491 0.0695414
-0.396234 0.14239 0.0085465
-0.205437 -0.513306 0.298272
0.378196 -0.147336 0.360584
-0.147885 -0.368443 0.360583
0.423942 -0.779101 -0.380296
-0.263 0.203385 0.38214
0.172338 0.0813948 0.425899
-0.271282 0.31775 0.039044
-0.170758 0.592227 -0.379571
-0.153431 0.340623 0.366892
0.309168 -0.22358 0.275399
0.360689 -0.132087 0.359267
-0.31987 0.676095 0.298272
-0.307997 0.157639 0.317217
-0.0640171 0.0508974 -0.424055
-0.178383 -0.238829 -0.405337
0.466911 0.043273 0.389765
-0.117817 -0.162585 0.313521
-0.155509 -0.734412 -0.267001
0.393445 -0.421813 0.307386
-0.258094 0.302501 0.122912
0.393445 0.0979491 -0.220185
-0.256609 0.0890192 0.389765
0.423458 -0.780159 -0.380296
0.423692 -0.780159 0.321146
0.294328 0.0979491 0.168658
-0.353743 0.775671 0.168658
0.279079 0.0979491 0.0847902
0.292121 -0.0329707 -0.395545
-0.295685 0.752339 0.336394
0.357434 -0.109214 -0.342174
-0.245927 0.272004 0.161034
-0.109763 -0.0253463 0.425899
-0.166715 0.233882 0.305897
-0.38424 0.759963 0.117845
-0.346119 0.355872 0.243203
-0.0963901 -0.688666 -0.296428
-0.271766 0.576979 -0.0295753
-0.348937 0.508359 0.237278
-0.38767 0.584603 0.100039
-0.273219 0.432116 -0.00670223
-0.26978 0.56173 0.0619171
-0.267056 0.767588 0.0771658
-0.0868902 -0.208331 0.409158
-0.231753 0.332999 0.197831
0.00460225 0.0979491 0.397389
0.149465 0.0979491 0.222029
-0.178383 -0.462129 -0.380296
0.0579728 0.0979491 -0.0829459
-0.162527 0.752339 0.374516
-0.269081 0.775212 -0.0905703
0.45444 -0.0129058 -0.189687
-0.141153 0.592227 0.336394
0.0427241 0.0979491 -0.395545
-0.216619 0.416867 0.229653
0.33245 -0.547411 -0.395545
-0.125012 0.0979491 -0.273555
0.294328 -0.0140579 0.229653
-0.20517 -0.490433 0.313521
0.362947 -0.0863412 -0.304555
0.240958 0.0979491 0.122912
-0.307997 -0.0129058 -0.243058
0.0274753 -0.0129058 -0.0905703
0.355323 0.0979491 -0.220185
0.378196 -0.178254 -0.380296
-0.201256 0.775671 0.374516
0.33245 -0.0129058 -0.220185
-0.163134 -0.264735 -0.296428
0.393445 -0.193082 0.409158
0.343577 -0.0482194 -0.33455
-0.0258952 0.0979491 0.0237952
0.466911 0.0661461 -0.250682
0.43106 -0.719164 0.336394
-0.163134 -0.0495575 -0.365047
-0.155509 -0.269326 -0.359926
-0.140261 -0.299823 0.306193
0.355323 -0.0482194 -0.293019
0.466911 0.0203999 0.321146
-0.384733 0.493111 0.115288
0.420385 -0.787783 0.305897
-0.255934 0.637974 -0.128692
0.385821 -0.0129058 -0.128692
0.347699 0.0979491 -0.227809
0.308863 -0.498057 -0.349799
-0.147544 0.470238 -0.326926
-0.18077 -0.787783 0.32877
-0.125012 -0.0129058 -0.0600728
-0.117817 -0.589549 0.351643
0.263831 0.0979491 -0.143941
-0.277499 0.775438 -0.00670223
0.378196 0.0979491 -0.243058
-0.391865 0.165263 0.0760734
0.362947 -0.177175 -0.372672
-0.352341 0.165263 -0.227809
-0.163134 -0.178254 0.283024
0.466911 0.0737705 -0.136316
0.340074 -0.260979 0.298272
-0.262251 0.378745 -0.100245
0.393445 0.0979491 0.351643
-0.0182709 -0.0129058 0.374516
0.134216 0.0979491 -0.0448241
-0.158257 -0.34557 -0.304053
0.317201 -0.040595 0.240913
0.416318 0.0979491 -0.288804
0.347699 -0.459935 0.361054
0.431567 0.0979491 0.0619171
-0.29079 0.119517 0.344019
0.0274753 0.0979491 -0.143941
-0.140261 -0.132087 -0.357131
0.423942 -0.547411 -0.342174
-0.0879478 -0.772534 0.374516
-0.32718 0.302501 -0.281179
-0.315621 0.775671 -0.182063
0.271455 -0.0129058 -0.33455
-0.256609 0.538857 -0.387921
0.370572 -0.109214 -0.358739
0.466911 0.0356486 0.183907
-0.381797 0.249131 -0.128692
0.362947 -0.681683 -0.281179
0.202836 -0.0129058 -0.281179
-0.141153 0.127141 -0.33455
-0.0692437 -0.208331 0.366892
-0.259709 0.515984 -0.113443
-0.173059 0.607476 -0.296428
-0.165248 -0.658169 0.336394
-0.109763 -0.726788 0.270957
0.362947 -0.0471378 0.252526
-0.346119 0.584603 -0.241359
-0.155509 0.0979491 0.0314196
-0.140261 0.172887 -0.354006
0.0503484 0.0979491 -0.0981946
-0.203638 0.150014 0.252526
0.385821 -0.551428 -0.365174
-0.392845 0.294877 0.0619171
0.240958 -0.0129058 -0.0295753
-0.0335196 -0.0129058 0.0237952
-0.102139 -0.040595 0.240913
-0.132636 -0.260979 -0.380296
-0.372634 0.401618 -0.166814
0.357434 -0.284575 -0.319301
0.149465 0.0979491 -0.410794
0.00460225 0.0979491 0.405014
0.218085 0.0979491 0.168658
-0.140261 0.523608 -0.354006
-0.163134 -0.547216 -0.258306
0.172338 0.0979491 -0.372672
0.431567 -0.0471378 -0.319301
0.355323 -0.231204 0.40916
-0.292748 0.584603 -0.339124
-0.140261 -0.813252 0.298272
-0.224129 0.592227 -0.212019
-0.390606 0.371121 0.0847902
-0.365128 0.729466 0.191531
-0.203638 0.38637 0.252526
0.439191 -0.0129058 0.115288
-0.20517 -0.490433 0.267775
0.21046 -0.0129058 0.366892
-0.171624 0.470238 -0.380296
0.324826 0.0979491 0.0695414
-0.170758 -0.0129058 0.138161
-0.36763 0.218633 0.183907
-0.201256 -0.0129058 -0.0676972
0.466911 0.0203999 0.0085465
0.431567 0.0979491 0.267775
-0.261177 0.241507 -0.105819
-0.262251 0.775671 -0.243058
0.378196 -0.536179 0.409175
-0.135038 0.744715 0.344019
-0.338494 0.272004 -0.25739
-0.198913 0.546481 -0.403169
0.0808459 0.0979491 -0.197311
0.141841 -0.0129058 -0.33455
-0.380328 0.744715 0.138161
-0.243827 0.363496 -0.403169
0.439191 -0.547352 0.359267
0.0122266 -0.0129058 0.229653
-0.323246 0.668471 0.291295
-0.155509 0.26438 -0.36679
-0.272251 0.447364 -0.021951
-0.156862 -0.0787169 0.344019
-0.0106465 -0.0129058 0.183907
-0.147885 -0.459935 -0.368205
-0.292748 0.226258 -0.339124
-0.170758 0.0203999 -0.424055
0.370572 -0.52093 -0.255759
-0.170758 0.56173 0.301073
-0.330806 0.508359 0.275399
-0.381797 0.0585217 -0.128692
-0.393329 0.645598 -0.0524484
0.202836 0.0979491 -0.410794
-0.147885 -0.414189 0.360583
-0.234749 0.203385 0.191531
0.355323 -0.00247319 0.425899
0.0808459 0.0979491 -0.304053
-0.161789 -0.574301 -0.33455
-0.132636 0.0966436 0.422577
0.362947 -0.547411 -0.395545
-0.254626 -0.0129058 0.290648
-0.239377 -0.0129058 0.0237952
-0.074152 -0.536179 -0.395545
0.309577 0.0979491 0.389765
-0.389138 0.0737705 0.0924145
-0.243827 0.668471 0.405014
0.401069 -0.193082 -0.407313
0.362947 -0.55148 -0.365047
0.309168 -0.22358 -0.311677
0.431567 -0.0129058 0.214404
-0.315621 -0.0129058 0.0542927
-0.00302212 0.0966436 0.422577
-0.041144 0.0890192 0.425898
0.461796 -0.0329707 -0.33455
-0.323554 0.493111 0.290648
-0.270798 0.714217 -0.0448241
-0.102139 -0.0329707 0.425899
-0.32718 0.637974 0.283024
-0.243827 0.477862 -0.403169
-0.323554 0.462613 -0.288804
-0.230927 0.119517 0.420262
-0.216504 0.592227 0.229892
-0.203638 0.26438 0.252526
-0.0745681 -0.200707 -0.296428
-0.259709 0.523608 -0.113443
-0.338059 0.538857 0.260151
0.322648 -0.749661 -0.296428
-0.239377 0.569354 0.410323
-0.112501 -0.177834 -0.365047
0.0579728 0.0978641 0.420262
0.431567 0.0979491 0.275399
-0.295685 0.416867 0.336394
-0.0792658 -0.0129058 0.0466683
0.362947 -0.260979 -0.281179
0.21046 -0.0129058 -0.166814
0.355323 -0.260979 -0.273555
-0.223871 0.73709 0.214404
0.362947 0.0979491 0.183907
-0.334433 0.401618 0.267775
0.370572 -0.0129058 0.122912
-0.394297 0.26438 0.039044
-0.285124 0.592227 -0.351
-0.250218 0.00515117 0.397389
0.393445 -0.673417 -0.285444
-0.163134 -0.46756 0.409087
0.164714 0.0979491 0.176283
-0.269391 0.287253 0.374516
-0.198743 0.744715 -0.258306
-0.224129 -0.0129058 0.0924145
-0.227497 0.310126 -0.204936
0.408694 -0.0329707 0.425899
0.134216 0.0979491 0.321146
0.401069 0.0979491 -0.105819
-0.270798 0.759963 -0.0448241
-0.041144 0.0979491 0.0237952
-0.125012 -0.589549 -0.355179
-0.31987 0.454989 -0.296428
-0.186007 -0.696289 0.366892
0.342118 -0.803032 0.366892
-0.33087 -0.0129058 0.000922135
-0.237437 0.599852 0.412638
0.218085 0.0979491 -0.220185
-0.334433 0.180512 0.267775
-0.140261 -0.66578 0.374516
-0.250218 0.409243 -0.395545
-0.0792658 -0.462129 0.298272
0.446816 0.0979491 0.0771658
0.0884703 0.0979491 -0.372672
-0.240923 0.706593 -0.174438
-0.237437 0.111892 -0.410794
0.324826 -0.185458 -0.407314
0.355323 -0.0471378 0.275399
-0.186007 -0.490433 -0.254433
0.309577 -0.544341 0.298272
-0.262251 0.622725 -0.100245
-0.0335196 -0.0129058 0.20678
-0.102139 -0.543803 0.408662
-0.155509 0.523608 0.319266
-0.0551111 -0.0253463 -0.243058
-0.156846 -0.566676 0.313521
0.439191 -0.462832 0.405014
0.0122266 -0.0128245 -0.418418
-0.0258952 0.0979491 0.0771658
-0.217113 0.607476 0.420262
0.141841 0.0203999 0.425899
-0.338494 0.56173 0.259235
-0.117388 -0.261702 0.293007
0.396473 -0.27695 -0.311677
0.425629 -0.696291 0.290648
-0.216504 0.775671 -0.342174
-0.132636 -0.261207 -0.372672
0.385821 -0.0939656 -0.30435
-0.140261 0.134765 -0.354006
-0.323554 0.310126 -0.288804
0.466911 0.0813948 -0.136316
-0.0945145 -0.0129058 0.0466683
-0.384733 0.393994 0.115288
-0.392361 0.0661461 -0.0676972
-0.255934 0.691344 -0.128692
0.462064 -0.0127544 0.100039
-0.00302212 -0.0129058 0.214404
-0.31987 0.714217 -0.296428
0.416318 -0.0129058 0.222029
0.0655972 -0.0129058 -0.365047
-0.163134 -0.547411 -0.265931
-0.253433 0.485486 -0.136316
-0.172347 -0.0482194 0.351643
-0.155509 0.576979 -0.317422
0.397305 -0.825905 -0.326926
-0.0258952 -0.0129058 0.0695414
-0.147885 -0.023986 0.237278
-0.390606 0.401618 0.0847902
0.279079 -0.0129058 0.260151
-0.147885 -0.76491 0.274185
0.408694 -0.66331 0.351643
0.396481 -0.360818 0.344019
0.385821 -0.559052 0.362334
0.233333 -0.0129058 -0.0829459
-0.203638 0.676095 0.252526
-0.175454 -0.177834 0.344019
-0.201256 0.691344 0.256237
0.466911 0.043273 -0.319301
0.362947 -0.543803 -0.406818
-0.0792658 0.0979491 0.244902
0.378196 -0.170209 0.303337
-0.216504 0.165263 0.419758
-0.0182709 -0.0129058 -0.0829459
-0.38424 0.340623 -0.116002
-0.375136 0.256755 0.161034
0.103719 -0.0129058 -0.136316
0.439191 0.0979491 -0.21256
-0.261177 0.211009 0.107663
0.327569 -0.772534 0.351643
0.394442 -0.315072 0.359267
-0.189816 0.607476 -0.395545
0.233333 0.0979491 0.0695414
-0.391865 0.637974 -0.0742302
0.248582 0.0979491 0.336394
0.301953 0.0979491 -0.410794
-0.198913 0.325375 -0.403169
-0.247002 0.485486 -0.399382
-0.277499 0.56173 0.364368
0.0732215 0.0356486 0.425899
-0.239377 0.180512 0.410323
0.444659 -0.505681 0.38214
-0.231753 -0.0159146 -0.258306
0.416318 -0.462129 0.32877
-0.193631 0.111892 0.400723
-0.102139 -0.22358 -0.254458
0.33245 0.0979491 0.305897
-0.247002 0.599852 0.157758
-0.178383 0.0997332 0.275399
0.401069 -0.173399 -0.304053
-0.0695402 -0.22358 0.32877
0.446816 -0.0129058 -0.21256
0.370572 0.043273 0.425899
0.347699 -0.462129 -0.387921
-0.155509 -0.0155467 -0.227809
-0.239377 0.775212 0.188808
0.408694 -0.175997 0.336394
-0.155509 -0.772534 -0.272872
-0.270798 0.310126 0.0466683
0.340074 0.0280243 0.425899
-0.375136 0.493111 0.161034
-0.170758 -0.0471368 0.275399
0.406825 -0.551428 0.313521
0.309577 0.0979491 -0.128692
-0.0182709 0.0979491 -0.365047
-0.338059 0.0508974 -0.258306
0.466911 0.0585217 0.000922135
0.408694 -0.26333 -0.33455
-0.270798 0.416867 0.0466683
-0.186007 -0.505681 0.258013
-0.147885 -0.0129058 0.000922135
-0.0563927 -0.0129058 -0.021951
0.0579728 0.0979491 -0.342174
0.218085 0.0979491 -0.403169
-0.295685 0.454989 0.336394
-0.162527 0.653222 0.374516
-0.390606 0.454989 0.0847902
-0.247002 0.592227 -0.399382
-0.155509 -0.264082 -0.365047
0.393445 -0.0787169 0.307386
-0.262645 0.409243 -0.0981946
-0.0258952 0.0979491 -0.0371997
0.355323 -0.560327 -0.311677
-0.353743 -0.0129058 0.115288
0.378196 -0.565633 0.305897
-0.0868902 -0.260979 0.275399
-0.394297 0.272004 -0.0371997
-0.39669 0.744715 0.000922135
0.393445 -0.543803 -0.256108
-0.155674 -0.139712 0.359267
-0.178383 0.729466 0.291508
-0.0498173 -0.0253463 0.283024
-0.240923 0.500735 0.176283
-0.33087 0.775671 0.199156
0.439191 -0.260798 0.32877
0.195211 -0.0129058 0.0237952
0.370572 -0.772534 -0.38861
0.439191 -0.462194 0.32877
-0.285124 -0.0129058 0.145785
