0.054361 -0.262767 0.187699
0.42686 -0.0420006 0.447569
0.41836 -0.690149 0.418648
-0.369411 -0.0196507 -0.00600043
-0.231225 0.203849 0.128099
-0.369411 0.516748 -0.34125
0.151211 -0.0488152 0.142999
-0.369411 0.352848 -0.31145
0.522801 0.159149 -0.438099
-0.231225 0.0473991 -0.0209004
0.522833 -0.2208 0.262199
-0.231225 0.598698 -0.2593
0.28531 0.174049 0.447571
0.44176 -0.719949 0.343101
-0.280888 0.831851 -0.22205
-0.369411 0.740247 -0.1699
0.38961 -0.262767 0.426098
0.0841609 -0.0416668 -0.0134504
-0.369411 0.323048 -0.0358003
0.522833 -0.12395 0.142999
0.233161 0.203849 -0.444655
-0.0648387 -0.0689175 0.277099
0.45666 -0.0424399 -0.0507003
0.33001 0.159149 0.343101
-0.231225 0.509298 -0.0209004
0.45666 -0.262767 -0.17735
-0.369411 0.807297 0.172799
0.34491 -0.0941505 -0.444672
-0.369411 0.755147 -0.32635
-0.231225 0.553998 -0.0358003
0.39706 -0.0844403 -0.348699
0.203361 -0.0646997 -0.25185
0.522833 -0.191 -0.363599
-0.355388 -0.262767 -0.2593
0.233161 0.106502 -0.371049
-0.198938 -0.0422841 0.0461494
0.41836 -0.3698 -0.371049
0.188461 -0.0454371 -0.10285
0.00966112 -0.262767 -0.20715
0.41941 0.106999 -0.443992
-0.231225 0.308148 -0.0805002
-0.227008 0.099549 -0.348699
0.218261 -0.0426532 -0.0581503
0.34491 -0.0689175 0.277099
-0.369411 0.494398 -0.0432503
-0.231255 0.635948 -0.438099
-0.369411 0.0101492 -0.0581503
-0.318138 -0.593299 -0.444672
0.42686 0.210975 -0.408299
-0.0201388 -0.0844403 0.396298
-0.231225 0.293248 -0.11775
0.50136 -0.682699 -0.340201
-0.369411 -0.0345506 -0.2444
-0.231225 0.0473991 -0.16245
-0.295788 0.838857 -0.17735
-0.295788 -0.262767 -0.1401
-0.231225 0.270899 -0.371049
-0.231225 0.0771991 -0.29655
-0.369411 0.121899 -0.20715
0.195911 0.106502 0.373949
-0.231225 0.226199 0.00144955
0.30766 -0.0605606 0.232399
-0.0871886 -0.0464906 0.120649
-0.340488 0.442248 -0.444672
-0.369411 -0.0792505 -0.1997
0.039461 0.136799 -0.340201
-0.369411 0.755147 0.388848
-0.236188 -0.262767 0.224949
0.00221115 0.106502 -0.400849
-0.295788 -0.2953 -0.444672
-0.231255 0.0771991 -0.438099
-0.280888 0.0548491 0.447571
-0.340488 -0.652899 -0.340201
-0.231225 0.248549 -0.348699
-0.0201388 0.106502 -0.363599
0.26296 0.106502 -0.356149
0.38216 -0.21335 0.447571
-0.333038 -0.36235 0.447571
0.47156 -0.262767 -0.0581503
-0.369411 -0.0271007 0.433548
0.50136 -0.262767 -0.0134504
-0.369411 -0.1165 -0.0134504
-0.264972 -0.40705 -0.438099
-0.131888 -0.0718005 -0.288961
0.47901 -0.34 0.343101
-0.369411 0.568898 0.306899
-0.0201388 0.166599 0.447571
0.51626 0.0697491 0.343133
-0.369411 0.621048 -0.1103
-0.310688 -0.690149 -0.340201
-0.231225 0.434798 -0.29655
-0.369411 0.591248 0.165349
0.27041 -0.0844403 0.403748
-0.369411 -0.0643506 -0.0954002
-0.102089 -0.0431172 -0.0656003
0.28531 -0.0689175 -0.2742
-0.0201388 -0.0618879 0.239849
-0.303238 -0.262767 -0.3189
-0.231225 0.598698 -0.408299
-0.223553 -0.0643506 -0.2742
0.38216 0.203849 0.343118
-0.288338 0.851134 -0.0432503
0.522833 -0.12395 -0.371049
-0.369411 0.613598 0.0610494
0.44921 -0.262767 0.202599
-0.273438 -0.585849 -0.340203
-0.333038 -0.3251 -0.444672
-0.369411 0.419898 0.187699
-0.273438 -0.734849 -0.340209
-0.347938 -0.262767 0.128099
-0.369411 0.479498 -0.423199
-0.369411 -0.3549 -0.393399
0.522833 -0.2208 -0.20715
-0.231225 0.628498 0.0610494
-0.369411 0.747697 -0.0879502
-0.369411 -0.541149 -0.385949
0.218261 0.129349 0.447571
-0.369411 0.628498 0.0982993
-0.369411 -0.0271007 -0.0432503
-0.228738 -0.05221 -0.2444
0.42686 0.0250492 0.343103
0.51626 -0.593299 0.343133
-0.369411 0.181499 0.0833993
0.45666 -0.675249 -0.340201
0.29276 -0.0440452 0.0833993
-0.231225 0.680647 0.284549
-0.369411 0.442248 -0.356149
0.522833 -0.0792505 -0.14755
0.45666 0.210915 0.440998
-0.369411 0.174049 0.269649
-0.369411 0.412448 0.306899
-0.0871886 -0.24315 0.447571
-0.369411 0.702997 0.195149
0.29276 -0.0844403 -0.393399
-0.0201388 -0.0646997 -0.25185
0.143761 -0.262767 0.426098
0.44921 -0.0539784 0.187699
0.00221115 -0.0550669 0.195149
-0.236188 0.628498 -0.444295
-0.369411 0.449698 0.0684994
-0.231225 0.695547 -0.29655
-0.369411 0.114449 -0.0432503
-0.369411 0.196399 -0.0656003
0.44921 -0.712499 -0.340201
0.136311 -0.0416668 0.0163495
-0.0722887 0.151699 0.447571
0.48646 0.210975 0.381399
0.113961 0.106502 0.426098
-0.369411 0.680647 -0.2146
0.0171111 0.159149 0.343101
0.27786 -0.262767 0.254749
0.420737 0.099549 0.344149
0.42686 -0.474099 0.447569
-0.231225 0.680647 -0.3189
0.39706 -0.262767 -0.1699
-0.318138 0.770873 0.440998
-0.303238 -0.34745 -0.444672
-0.369411 0.129349 0.0535994
0.0916109 -0.0539784 -0.1848
0.41836 -0.697599 -0.385949
0.158661 -0.1463 0.447571
-0.369411 0.226199 -0.1103
-0.303238 0.843321 0.150449
-0.369411 0.099549 -0.363599
-0.369411 -0.2357 -0.363599
-0.280888 0.805187 0.336699
0.28531 -0.0689175 0.277099
-0.362838 0.00269926 -0.44464
0.188461 -0.0844403 0.411198
0.44176 0.210975 0.396298
-0.325588 -0.43685 0.447571
0.27786 -0.1016 -0.444672
0.34491 -0.0836708 -0.34125
0.188461 0.144249 -0.444672
0.46411 -0.34745 0.447571
-0.369411 -0.1314 -0.22205
-0.310688 0.323048 -0.444672
-0.231225 0.717897 -0.155
-0.0275888 -0.262767 -0.23695
0.233161 -0.191 0.447571
-0.00523883 0.210975 0.403748
0.41836 0.0399492 -0.415749
0.0245611 -0.0415125 0.00889953
0.45666 -0.466649 0.343101
-0.0499387 -0.0416668 0.0163495
-0.176588 -0.0844403 0.403748
-0.369411 0.330498 0.217499
-0.369411 -0.615649 -0.423199
-0.369411 -0.15375 -0.408299
0.43431 -0.0718287 0.291999
0.41836 -0.3251 -0.356149
-0.310688 0.501848 0.447571
0.166111 0.144249 0.447571
0.27041 0.203849 -0.340219
0.25551 -0.262767 -0.430649
-0.236188 0.835082 -0.1997
-0.230097 0.092099 -0.385949
-0.231225 0.226199 -0.29655
-0.231225 0.814747 0.0982993
-0.369411 -0.16865 0.217499
0.41836 -0.28785 -0.400849
0.188461 -0.0459102 0.113199
0.47901 -0.742815 0.396298
0.522831 -0.600749 0.351599
-0.369411 0.382648 -0.155
0.29276 -0.262767 0.388848
0.203361 -0.262767 0.321799
0.00966112 0.159149 -0.340201
-0.221288 0.104011 -0.400849
0.522801 -0.2208 -0.438099
0.44921 -0.2655 -0.32997
0.47901 -0.262767 -0.304
-0.333038 -0.481549 -0.444672
-0.26494 -0.459199 0.373949
0.47901 -0.262767 -0.0432503
0.061811 0.151699 -0.340201
-0.184038 -0.0424399 0.0535994
0.420737 0.0250492 -0.34125
0.00221115 -0.10905 -0.444672
-0.280888 -0.191 0.447571
-0.231225 0.315598 -0.16245
-0.231225 0.539098 0.306899
0.27786 -0.262767 0.239849
0.41941 -0.0196507 -0.440686
-0.369411 -0.21335 -0.0432503
-0.369411 0.732797 -0.10285
0.522833 0.181499 0.426098
-0.369411 0.553998 0.0461494
-0.231225 -0.00475072 -0.0507003
0.0990609 -0.0844403 0.359049
0.35236 -0.13885 -0.444672
0.41836 -0.0420006 0.411198
0.113961 -0.0419755 0.0312495
-0.295788 0.800934 -0.348699
-0.369411 0.464598 -0.0358003
0.061811 -0.262767 0.373949
-0.184038 0.203849 0.447554
0.39706 -0.15375 0.447571
-0.26494 -0.667799 0.359049
0.233161 0.106999 -0.345636
-0.206388 -0.0539784 0.187699
0.49391 -0.0759727 -0.3338
0.41836 -0.496449 -0.378499
-0.231225 -0.0420006 -0.363599
0.173561 -0.0821792 0.336699
0.43431 -0.3102 -0.340201
-0.169138 0.151699 -0.444672
-0.26494 -0.474099 0.418648
0.046911 0.210975 0.373949
-0.369411 0.0175992 -0.17735
-0.0573887 0.210975 0.396298
0.522833 -0.0271007 -0.363599
0.41836 -0.0271007 -0.356149
0.24061 -0.25805 -0.444216
-0.0201388 0.166599 0.343101
0.195911 0.110014 0.344149
-0.318138 -0.742815 -0.393399
-0.369411 0.330498 -0.348699
0.25551 -0.1016 0.447571
0.29276 0.174049 -0.444672
-0.26494 -0.34745 -0.385949
-0.369411 0.084649 -0.155
0.38961 -0.262767 -0.385949
0.34491 -0.2208 0.447571
-0.26494 -0.637999 -0.408299
0.49391 0.121899 -0.444672
-0.369411 0.516748 -0.378499
0.31511 0.106999 -0.345636
-0.0201388 -0.0618879 -0.23695
0.41941 -0.0435812 0.0759493
0.50136 -0.16865 0.447571
-0.176588 -0.1314 -0.444672
-0.369411 0.412448 0.232399
0.522833 -0.28785 0.388848
-0.369411 0.613598 -0.0581503
0.45666 0.151699 -0.444672
-0.369411 0.0473991 0.396298
0.522833 0.159149 -0.430649
-0.231225 0.0324992 0.0461494
0.203361 -0.25805 -0.444216
-0.231225 0.106999 -0.1252
-0.258538 -0.262767 0.165349
0.48646 -0.262767 -0.2593
-0.369409 -0.39215 -0.348699
0.143761 0.106504 -0.348699
-0.184038 -0.262767 -0.22205
0.522833 -0.15375 0.00144955
-0.231225 0.248549 -0.356149
-0.191488 -0.0449732 -0.0954002
-0.0573887 -0.0769935 -0.31145
-0.369411 0.755147 0.396298
0.522833 -0.488999 -0.378499
-0.231225 0.457148 0.0684994
-0.116989 -0.262767 -0.25185
0.522801 0.166599 0.440998
-0.146788 0.151699 -0.444672
0.158661 -0.16865 -0.444672
0.113961 -0.0844718 -0.438099
-0.369411 0.352848 -0.0358003
0.44176 -0.42195 0.447571
0.44921 0.203849 0.343118
-0.231225 0.166599 0.239849
-0.273438 0.784947 -0.398285
-0.169138 0.188949 -0.444672
-0.0946386 -0.0511398 0.165349
-0.231225 0.345398 -0.155
-0.288338 -0.742299 0.348419
-0.369411 0.404998 -0.00600043
-0.243638 0.621048 -0.444672
-0.191488 -0.262767 0.187699
-0.231225 0.404998 -0.32635
-0.369411 0.643398 0.195149
0.522833 -0.3996 0.396298
-0.231225 0.613598 0.351599
0.44176 -0.28785 -0.340201
0.061811 -0.0844718 -0.438099
-0.231225 0.419898 -0.25185
-0.295788 0.226199 0.447571
0.522833 -0.10905 -0.20715
-0.280888 0.755147 0.447571
-0.231225 0.211299 0.0833993
0.415534 0.099549 -0.408299
-0.231225 0.211299 0.0461494
-0.340488 -0.623099 -0.444672
-0.273438 -0.34 0.343103
-0.26494 -0.496449 0.426098
0.0245611 -0.0440452 0.0833993
-0.236188 0.851277 -0.0283504
-0.369411 0.702997 -0.1699
0.43431 -0.541149 0.447571
-0.26494 -0.682699 -0.385949
-0.340488 -0.742815 0.418648
0.522833 0.129349 0.366499
0.418362 -0.00475072 -0.348699
-0.369411 0.129349 0.314349
0.181011 0.181499 -0.340201
-0.369411 -0.13885 -0.1401
-0.295788 0.725347 -0.444672
-0.369411 0.658297 -0.378499
-0.0648387 -0.0464906 -0.11775
-0.369411 -0.00475072 0.150449
0.27041 -0.2208 -0.444672
-0.231225 0.635948 0.336699
-0.369411 -0.0718005 -0.155
0.41941 -0.0569006 0.2077
-0.176588 0.206973 -0.34125
-0.369411 0.643398 0.373949
-0.236188 -0.262767 0.128099
0.49391 -0.34745 -0.340201
-0.231225 0.270899 0.373949
0.0320111 -0.262767 0.262199
0.24806 -0.262767 0.0535994
0.40451 -0.1463 -0.444672
-0.273438 -0.1463 0.447571
0.195911 -0.0844403 -0.378499
-0.369411 0.680647 -0.2593
-0.0350388 0.210973 -0.348699
-0.231225 -0.0122007 0.0610494
-0.231225 0.330498 -0.363599
-0.264942 -0.637999 0.351599
0.41836 -0.36235 -0.393399
0.45666 0.129349 -0.444672
-0.355388 -0.742815 -0.363599
0.173561 -0.0440452 -0.0805002
-0.369411 -0.0494506 -0.2146
0.00221115 -0.0844403 -0.408299
0.0171111 0.110014 0.344149
0.45666 -0.570949 -0.444672
0.25551 -0.262767 0.329249
-0.243638 -0.1314 -0.444672
-0.231225 0.0697491 0.232399
0.069261 0.159149 -0.444672
0.061811 0.129349 0.447571
-0.231225 0.0101492 0.366499
-0.231225 0.509298 0.381399
-0.369411 0.0548491 0.0312495
-0.333038 -0.43685 -0.340201
-0.333038 0.270899 -0.444672
0.27041 -0.262767 -0.32635
-0.231225 0.099549 0.232399
0.522833 -0.30275 -0.423199
0.51626 0.092099 0.447539
0.47156 -0.262767 -0.2146
-0.333038 -0.262767 -0.2295
0.522801 -0.12395 -0.438099
0.47901 -0.3251 -0.340201
-0.333038 -0.262767 -0.1699
-0.221288 -0.0400119 0.0610494
0.44921 -0.511349 0.447571
-0.369411 -0.1761 -0.2146
-0.288338 0.665747 -0.444672
0.195911 -0.262767 -0.3338
-0.333038 0.0548491 -0.444672
0.41196 -0.0816674 0.381399
-0.191488 -0.2357 -0.444672
-0.273438 -0.742813 0.388848
-0.369411 0.591248 -0.3338
-0.280888 -0.481549 0.343101
0.181011 -0.262767 -0.155
0.0245611 -0.2506 0.447571
0.233161 -0.262767 -0.22205
-0.369411 -0.40705 -0.423199
0.38216 -0.262767 0.0163495
-0.231225 0.710447 0.0684994
-0.251088 0.850673 -0.0581503
-0.231225 0.293248 -0.0432503
-0.231225 0.159149 0.113199
0.47901 -0.21335 -0.444672
-0.254708 -0.2655 -0.378499
0.166111 -0.262767 0.0833993
-0.369411 0.695547 -0.1103
-0.369411 0.337948 0.113199
-0.369411 0.315598 0.277099
-0.176588 0.188949 -0.340201
-0.369411 0.092099 -0.0730502
-0.369411 0.278349 0.388848
-0.231225 0.211299 -0.20715
-0.102089 -0.262767 -0.2444
0.48646 -0.541149 -0.340201
0.173561 -0.262767 0.291999
-0.267321 -0.37725 0.344149
0.48646 -0.3996 0.447571
-0.231225 0.0771991 -0.415749
0.35236 -0.0431172 0.0684994
0.35236 -0.0735364 -0.29655
0.47901 -0.262767 0.120649
-0.231225 0.367748 -0.25185
0.27786 -0.0941505 -0.444672
0.32256 -0.0488152 -0.1401
0.49391 -0.34 0.447571
-0.295788 0.494398 -0.444672
-0.369411 0.695547 0.269649
-0.355388 0.717897 0.447571
-0.231225 0.665747 -0.0656003
-0.288338 -0.262767 0.0535994
-0.369411 0.151699 0.157899
0.47156 0.099549 0.343101
0.522833 -0.623099 -0.385949
-0.280888 0.794444 0.373949
0.45666 -0.675249 0.447571
-0.369411 0.486948 0.239849
-0.231225 0.151699 -0.0581503
-0.369411 0.226199 -0.16245
0.136311 0.106502 0.396298
-0.0871886 -0.262767 0.254749
0.38216 0.106502 -0.371049
-0.124439 -0.0844403 0.433548
0.35236 -0.0421298 0.0386994
-0.169138 -0.262767 -0.0954002
-0.0573887 -0.0480403 0.135549
-0.369411 -0.0271007 -0.13265
-0.369411 -0.2357 -0.348699
0.113961 -0.1463 0.447571
-0.251088 0.837097 0.191556
-0.340488 0.836538 -0.19225
0.188461 -0.0594207 0.224949
-0.236188 0.807297 -0.325926
-0.333038 -0.667799 -0.340201
0.36726 -0.0445092 -0.0879502
-0.310688 -0.697599 -0.340201
0.522833 -0.2357 0.0908493
0.35236 -0.1165 0.447571
0.29276 -0.0426532 0.0610494
-0.231225 0.367748 -0.400849
0.233161 -0.262767 -0.2593
0.420737 -0.31765 0.344149
-0.369411 0.583798 0.210049
0.33746 -0.262767 0.0759493
-0.369411 0.546548 0.247299
-0.369411 0.0548491 0.403748
-0.231225 0.606148 0.202599
0.203361 0.166599 -0.444672
-0.102089 -0.262767 -0.0954002
-0.231225 0.621048 -0.2891
0.173561 -0.191 -0.444672
-0.251088 -0.264205 0.396298
-0.280888 0.851997 -0.0153178
-0.369411 -0.481549 0.381399
0.225711 -0.0449732 -0.0954002
-0.0871886 0.106502 0.411198
-0.231225 0.725347 0.269649
-0.0126888 -0.0643506 -0.25
-0.369411 0.464598 -0.31145
-0.369411 0.613598 -0.0656003
-0.00523883 -0.19845 -0.444672
0.46411 0.0548491 0.343101
0.518842 -0.563499 -0.34125
-0.0350388 0.210975 -0.423199
-0.369409 -0.2655 0.351599
-0.0275888 -0.1463 0.447571
-0.258538 0.673197 -0.444672
0.225711 0.106502 0.381399
0.49391 -0.0784354 -0.3189
-0.280888 0.472048 0.447571
-0.109539 -0.262767 -0.2295
-0.251088 -0.264205 -0.356149
0.45666 0.210975 0.359049
-0.26494 -0.31765 0.388848
-0.231225 0.233649 0.224949
0.31511 -0.262767 -0.1252
0.41196 -0.18355 -0.444672
-0.310688 0.851364 -0.0358003
-0.362838 0.805158 -0.3338
-0.265988 -0.727399 -0.440682
0.210811 -0.0844403 0.411198
0.50136 -0.0646997 0.254749
-0.369411 -0.0122007 0.0982993
0.522833 -0.570949 0.426098
0.173561 0.166599 -0.444672
-0.369411 0.583798 0.120649
-0.369411 0.695547 -0.0730502
-0.258538 -0.267482 0.426098
-0.280888 0.80944 -0.3189
-0.369411 0.084649 -0.371049
-0.258538 0.621048 0.447571
0.522833 -0.608199 0.366499
-0.231225 0.561448 -0.17735
0.522833 -0.22825 -0.19225
0.26296 -0.262767 -0.2295
0.26296 -0.050365 0.157899
-0.0871886 -0.262767 0.180249
-0.273438 -0.2953 0.343103
-0.139338 -0.262767 0.180249
-0.116989 -0.262767 0.0312495
-0.231225 0.591248 -0.0432503
0.38961 -0.1612 -0.444672
-0.251088 0.524198 -0.444672
0.49391 -0.1016 0.447571
0.522833 -0.40705 0.373949
-0.0871886 0.188949 0.343101
-0.191488 -0.0821792 0.336699
-0.310688 -0.0941505 0.447571
0.181011 -0.2506 0.447571
0.195911 -0.0480403 -0.13265
-0.369411 0.688097 0.418648
0.203361 -0.262767 0.202599
-0.0201388 0.181499 0.343101
-0.251088 0.747697 -0.444672
-0.0424887 -0.262767 0.128099
-0.318138 -0.503899 -0.444672
0.522833 -0.15375 0.128099
-0.231225 0.106999 -0.0879502
-0.231225 0.315598 -0.10285
-0.154238 0.210975 0.433548
0.27041 -0.262767 0.120649
0.522833 -0.4294 0.403748
-0.231225 0.717897 0.291999
-0.369379 -0.503899 -0.438099
0.39706 -0.262767 0.0461494
-0.362838 -0.697599 -0.44464
0.47901 -0.30275 0.343101
0.420737 0.0175992 -0.34125
-0.369411 0.449698 0.426098
0.48646 0.210975 0.403748
-0.369411 0.114449 0.351599
0.418392 -0.705049 0.440998
-0.124439 -0.262767 0.0163495
0.188461 -0.262767 -0.26675
0.0841609 -0.262767 0.0610494
0.522833 -0.191 0.210049
-0.369411 0.0250492 0.0982993
0.45666 -0.2655 -0.32997
-0.369409 -0.645449 0.351599
-0.369411 0.702997 0.396298
0.195911 -0.262767 -0.1997
-0.369411 -0.1016 0.239849
-0.369411 0.710447 0.157899
0.522833 -0.22825 0.351599
-0.369411 0.792397 -0.1997
-0.184038 -0.0431172 -0.0656003
-0.369411 -0.1165 0.396298
-0.369411 -0.0867005 -0.0656003
-0.369411 0.159149 -0.430649
-0.340488 0.293248 0.447571
0.106511 -0.262767 0.224949
-0.26494 -0.667799 0.411198
-0.369411 0.799847 0.0461494
-0.369411 -0.0867005 -0.356149
-0.369411 0.591248 0.113199
0.38961 -0.262767 -0.0283504
0.522833 -0.3698 0.381399
0.34491 -0.0844718 0.440998
-0.231225 0.516748 0.0312495
0.173561 -0.262767 -0.23695
-0.340488 0.635948 0.447571
-0.369411 -0.1463 -0.2444
0.046911 0.210975 -0.363599
0.128861 0.210975 -0.400849
-0.231225 0.270899 -0.34125
0.0171111 -0.262767 0.247299
0.41836 -0.615649 -0.363599
0.37471 -0.0445092 0.0908493
-0.340488 0.818964 -0.28165
-0.369411 0.159149 0.128099
0.35236 -0.0661056 -0.2593
-0.369411 0.404998 -0.1997
-0.369411 0.635948 -0.1699
-0.267321 -0.682699 0.344149
0.48646 -0.2953 0.447571
-0.369411 0.263449 0.418648
0.48646 -0.0435812 -0.0730502
0.166111 0.210973 -0.348699
-0.369411 0.211299 0.165349
-0.161688 0.188949 -0.444672
-0.369411 0.635948 0.291999
-0.231225 0.583798 0.291999
0.32256 -0.13885 -0.444672
0.166111 0.210975 -0.393399
-0.0648387 0.106502 -0.423199
-0.273438 -0.593299 -0.44467
-0.228738 -0.2357 0.447571
0.522833 0.0548491 -0.363599
-0.231225 0.650847 0.157899
0.34491 -0.0618879 0.239849
0.26296 0.206973 -0.34125
-0.369411 0.099549 0.172799
-0.369411 0.00269926 0.210049
-0.303238 0.665747 -0.444672
0.225711 -0.2059 0.447571
0.44176 -0.0572438 -0.20715
-0.369411 -0.191 0.336699
0.51626 -0.0572998 -0.20715
0.00966112 -0.262767 0.426098
0.30766 0.106502 0.403748
0.50136 -0.31765 -0.340201
-0.355388 0.843321 0.150449
-0.228738 -0.262767 0.00889953
-0.369411 -0.2506 0.284549
0.113961 0.106502 0.359049
0.203361 -0.0804506 0.329249
-0.109539 -0.262767 -0.385949
-0.231232 0.844547 -0.00600043
-0.231225 0.710447 -0.17735
-0.231225 0.576348 0.165349
0.35236 -0.0572438 0.210049
0.44921 -0.459199 0.447571
0.418362 -0.578399 -0.348699
0.28531 -0.0569006 0.2077
-0.369411 0.531648 -0.13265
0.143761 -0.13885 0.447571
0.039461 0.121899 0.343101
-0.369411 -0.2357 0.00144955
-0.369411 0.151699 -0.0805002
0.00221115 -0.262767 -0.1103
0.128861 -0.0561553 0.202599
-0.369411 0.0175992 -0.20715
0.42686 -0.742813 0.396298
-0.369411 -0.1165 -0.408299
-0.369411 -0.2357 -0.430649
0.50881 -0.0867005 0.447571
-0.0499387 -0.262767 -0.16245
0.49391 -0.0605606 -0.2295
-0.369411 -0.697599 -0.415749
0.181011 -0.262767 -0.0954002
0.181011 -0.262767 0.0982993
-0.369411 0.300698 -0.14755
0.36726 -0.262767 -0.13265
-0.109539 -0.0550669 -0.19225
0.41941 0.188949 0.447571
0.106511 -0.0539784 -0.1848
0.0841609 -0.0752649 -0.304
-0.369411 0.308148 0.239849
-0.231225 0.419898 -0.1848
-0.231225 0.449698 0.187699
-0.369411 0.770047 -0.2593
-0.0499387 -0.262767 -0.2593
-0.231225 0.114449 -0.0656003
0.0245611 0.166599 0.343101
-0.364207 -0.742299 0.351599
-0.369409 -0.488999 -0.348699
-0.0275888 -0.0605606 -0.2295
0.38961 -0.0632938 -0.2444
0.0320111 -0.16865 -0.444672
0.50881 -0.0426532 -0.0581503
0.151211 -0.12395 0.447571
-0.333038 -0.742813 -0.348699
-0.369411 -0.511349 0.433548
0.44176 -0.2804 0.447571
-0.347938 0.770873 -0.438099
0.50136 -0.262767 -0.0581503
0.195911 -0.1314 -0.444672
0.24806 -0.262767 -0.304
-0.231225 0.390098 -0.2742
0.47901 0.092099 0.343101
0.0916109 -0.262767 -0.3189
-0.231225 0.0101492 0.418648
-0.369411 0.174049 -0.304
-0.231225 0.710447 -0.378499
-0.325588 -0.3996 0.447571
0.41836 -0.0196507 -0.430649
-0.369411 0.539098 0.0610494
-0.184038 0.210975 0.426098
-0.231225 0.00269926 -0.385949
-0.280888 -0.3847 0.447571
0.0916109 0.110014 0.344149
0.522833 -0.4294 -0.423199
0.188461 -0.191 0.447571
-0.347938 -0.459199 0.447571
-0.0499387 -0.0435812 0.0759493
0.41836 -0.608199 -0.371049
-0.176588 -0.262767 -0.423199
0.143761 -0.262767 0.172799
0.24061 -0.0424399 0.0535994
-0.231225 0.0771991 0.418648
-0.146788 -0.262767 0.202599
0.43431 -0.262767 -0.0358003
0.26296 0.159149 -0.444672
-0.369411 0.181499 0.291999
-0.231225 0.449698 0.336699
-0.231225 0.770047 -0.0283504
-0.131888 0.106999 0.442323
0.50881 0.0771991 -0.340201
0.522833 -0.0122007 -0.356149
-0.258538 0.293248 0.447571
0.195911 -0.19845 0.447571
-0.369411 0.0175992 0.150449
-0.369411 0.516748 -0.348699
-0.303238 0.464598 -0.444672
-0.369411 -0.0345506 0.0237995
-0.369411 0.755147 0.411198
-0.369411 -0.0196507 -0.2146
0.128861 0.144249 -0.340201
0.0841609 -0.262767 -0.1252
-0.369411 -0.16865 -0.1848
-0.169138 -0.262767 0.180249
-0.26494 -0.563499 -0.423199
0.233161 -0.0632938 -0.2444
-0.231225 0.323048 -0.3338
-0.231225 0.784947 -0.2146
0.50136 -0.262767 0.00144955
-0.369411 0.00269926 0.165349
-0.0573887 -0.0431172 -0.0656003
-0.369411 -0.1761 0.210049
0.47156 -0.0718005 -0.444672
0.522819 -0.0494506 -0.0358003
0.233161 0.110014 -0.34125
-0.369411 0.732797 0.0759493
-0.231225 0.0473991 -0.22205
-0.0946386 -0.078722 0.321799
0.47901 0.210975 0.381399
-0.303238 -0.262767 -0.2444
0.26296 -0.0632938 0.247299
-0.231225 0.278349 -0.0432503
0.41836 -0.3102 0.359049
0.51626 -0.0494506 -0.44464
0.41196 -0.267484 -0.393399
-0.369411 0.114449 0.299449
-0.231225 0.159149 -0.22205
-0.0648387 -0.262767 0.105749
-0.273438 -0.742781 0.440998
-0.231225 0.300698 -0.11775
0.113961 0.210975 0.366499
-0.369411 0.695547 0.0163495
-0.176588 -0.0836708 -0.34125
-0.0722887 -0.0605606 -0.2295
-0.231225 0.524198 0.254749
-0.280888 -0.12395 0.447571
-0.369411 0.129349 0.210049
0.46411 -0.42195 -0.444672
0.0320111 -0.262767 0.113199
-0.176588 -0.262767 0.157899
-0.369411 0.308148 -0.408299
-0.369411 0.404998 0.00144955
-0.161688 0.196399 -0.340201
-0.0573887 -0.262767 0.0461494
-0.280888 0.621048 -0.444672
-0.369411 0.479498 0.366499
-0.26494 -0.526249 -0.363599
-0.369411 -0.459199 0.396298
0.166111 0.181499 -0.340201
-0.273438 -0.15375 0.447571
-0.154238 -0.0844403 0.381399
0.121411 0.210975 0.426098
-0.303238 0.114449 -0.444672
0.039461 -0.262767 -0.304
0.0841609 0.110014 0.344149
-0.26494 -0.4443 0.433548
-0.139338 -0.0844403 0.373949
-0.26494 -0.556049 -0.430649
-0.265988 -0.33255 -0.440682
-0.0797386 0.106535 0.440998
-0.0648387 0.121899 -0.340201
-0.369411 -0.10905 0.329249
-0.369411 0.151699 -0.0358003
-0.231225 0.546548 0.0833993
-0.369411 0.725347 -0.19225
-0.0126888 -0.0419755 0.0312495
0.0171111 -0.2506 0.447571
-0.355388 -0.690149 -0.340201
0.0320111 0.106999 -0.345636
-0.273438 0.635948 0.447571
0.43431 -0.630549 -0.444672
-0.231225 0.330498 -0.13265
-0.231225 -0.0122007 0.0312495
-0.231225 0.613598 -0.371049
-0.231225 0.747697 -0.0954002
-0.231225 0.352848 -0.155
-0.369411 -0.00475072 -0.13265
0.128861 -0.0718005 0.29186
-0.139338 -0.262767 -0.0805002
0.522833 -0.675249 0.359049
0.39706 0.106502 0.433548
0.40451 -0.0539784 -0.1848
0.32256 -0.0435812 0.0759493
-0.369411 -0.645449 -0.356149
0.054361 -0.262767 -0.378499
0.44176 -0.3847 0.447571
0.233161 0.206973 -0.34125
-0.251088 0.770047 -0.439796
0.27041 -0.0594207 0.224949
0.136311 0.106502 -0.356149
0.121411 0.106502 -0.415749
0.41836 -0.615649 -0.385949
0.522833 0.106999 0.396298
0.054361 0.121899 -0.340201
0.50136 -0.262767 0.195149
-0.231225 0.755147 0.329249
0.33746 0.106502 -0.363599
0.039461 -0.0594207 0.224949
0.522833 -0.1463 -0.10285
0.188461 -0.0449732 0.0982993
-0.26494 -0.511349 0.373949
-0.369411 0.159149 -0.3189
-0.273438 0.486948 -0.444672
0.41836 -0.637999 -0.371049
-0.236188 0.263449 0.447194
-0.231225 -0.0494506 -0.415749
-0.280888 0.834218 -0.20715
0.195911 0.210973 0.351599
-0.355388 -0.645449 0.343101
-0.231225 0.345398 0.0163495
-0.265988 0.524198 -0.444672
0.522833 -0.1165 -0.0134504
-0.102089 -0.0422841 -0.0432503
-0.355388 -0.36235 0.343101
-0.26494 -0.503899 -0.363599
-0.0797386 0.174049 0.343101
-0.369411 -0.3251 0.381399
-0.26494 -0.488999 0.381399
-0.169138 -0.0420006 0.0324635
-0.231225 0.352848 0.366499
0.113961 -0.262767 0.0610494
0.218261 0.196399 0.447571
-0.231225 0.576348 0.172799
0.522833 -0.518799 -0.430649
-0.184038 -0.0643506 -0.25
0.136311 -0.262767 -0.23695
0.43431 -0.608199 0.447571
-0.231225 0.509298 -0.3189
0.44921 0.114449 -0.444672
-0.0350388 -0.262767 0.202599
-0.231225 0.755147 0.165349
-0.26494 -0.570949 0.381399
0.0990609 -0.0844403 0.388848
0.225711 0.106502 0.359049
0.41836 -0.548599 0.373949
0.0841609 -0.0488152 -0.1401
-0.221288 0.213582 -0.393399
-0.231225 0.337948 -0.0283504
0.44921 -0.43685 0.447571
0.46411 -0.262767 0.306899
0.47901 -0.0426532 0.0610494
-0.369411 0.784947 -0.348699
0.42686 -0.34745 -0.340203
-0.369411 0.717897 -0.2593
-0.231225 0.792397 0.254749
-0.0499387 0.210975 0.403748
-0.213838 -0.262767 -0.371049
0.151211 0.106502 0.381399
-0.231225 0.345398 0.217499
0.0841609 0.106502 0.388848
0.0245611 0.114449 -0.444667
0.44921 -0.608199 0.343101
-0.231225 0.330498 0.0982993
-0.369411 0.248549 -0.2295
-0.369411 0.449698 -0.31145
-0.369411 -0.0420006 -0.10285
-0.369411 -0.2506 0.0386994
-0.369411 -0.34 -0.385949
-0.206388 -0.0539784 -0.1848
0.47901 -0.742815 0.418648
-0.369411 0.419898 -0.371049
0.0916109 -0.0539784 0.187699
-0.231225 -0.00475072 -0.2295
0.47156 -0.705049 -0.444672
0.49391 -0.675249 0.343101
0.136311 0.106999 0.348535
-0.213838 0.106502 0.426098
0.166111 0.203849 0.447554
-0.231225 0.635948 -0.0581503
-0.265988 -0.262767 -0.29655
-0.231225 0.501848 -0.415749
0.30766 -0.2357 0.447571
-0.369411 -0.1761 0.00144955
0.121411 -0.262767 -0.385949
-0.231225 0.486948 -0.3338
-0.0201388 0.210975 -0.371049
-0.369411 0.367748 0.00144955
0.31511 0.196399 -0.444672
-0.161688 -0.262767 -0.16245
-0.231225 0.509298 0.105749
-0.369411 0.106999 0.396298
-0.273438 -0.37725 -0.340203
-0.161688 -0.262767 -0.31145
-0.369411 -0.2059 -0.3189
-0.295788 -0.25805 0.447571
-0.231225 0.323048 -0.14755
0.40451 -0.0844403 -0.393399
-0.26494 -0.593299 0.396298
0.48646 -0.697599 -0.444672
-0.369411 0.300698 0.284549
0.48646 -0.742813 -0.348699
-0.231225 0.598698 0.157899
-0.369411 0.606148 -0.0805002
-0.102089 -0.0792505 0.324076
0.0990609 -0.0472655 -0.1252
-0.369411 0.270899 0.0386994
-0.217413 -0.0420006 0.0684994
-0.231225 0.449698 -0.2891
-0.369411 0.486948 -0.1699
0.41836 -0.42195 -0.378499
-0.310688 -0.742299 -0.439474
0.418392 -0.682699 -0.438099
-0.325588 0.784041 0.403748
0.45666 -0.0594207 -0.22205
0.49391 0.136799 0.447571
0.203361 -0.0867005 0.445486
0.181011 -0.2357 -0.444672
-0.325588 -0.2655 -0.444672
-0.369411 0.501848 0.0908493
-0.369411 0.464598 -0.0432503
-0.369411 0.0771991 0.359049
-0.362838 0.092099 0.447539
-0.231225 0.628498 0.105749
-0.265988 0.553998 0.447571
-0.231225 0.732797 0.262199
-0.369411 0.203849 0.0386994
-0.231225 0.449698 0.373949
0.210811 -0.262767 -0.29655
-0.0722887 -0.19845 -0.444672
-0.369411 -0.12395 0.224949
-0.369411 -0.1761 0.195149
-0.231225 0.382648 -0.0283504
0.46411 -0.191 0.447571
-0.231225 0.598698 0.411198
0.39706 0.174049 -0.444672
-0.231225 0.255999 -0.2742
0.44921 -0.262767 -0.0283504
-0.265988 0.591248 0.447571
-0.0946386 -0.262767 -0.17735
0.30021 -0.262767 -0.1699
-0.231225 0.0771991 0.187699
0.522833 -0.0867005 -0.1699
-0.333038 -0.667799 -0.444672
-0.333038 0.427348 0.447571
0.50881 -0.262767 0.277099
0.41836 -0.637999 -0.393399
0.41941 -0.3847 0.443585
-0.340488 -0.742813 -0.348699
-0.231225 0.583798 0.0163495
-0.369411 0.278349 -0.16245
0.522833 -0.22825 -0.371049
-0.258538 0.789308 0.388848
0.522831 -0.682699 -0.348699
-0.347938 -0.2506 0.447571
-0.267321 -0.3549 -0.34125
-0.231225 0.472048 0.150449
-0.231225 0.308148 -0.22205
0.30021 0.210975 -0.408299
0.522833 -0.1463 -0.0581503
0.522833 -0.511349 0.418648
0.46411 -0.488999 0.343101
-0.369411 -0.191 0.0386994
-0.231225 0.770047 0.210049
-0.369411 -0.21335 0.277099
-0.109539 -0.262767 -0.348699
-0.369411 -0.4443 0.366499
-0.231225 0.807297 0.0908493
-0.231225 0.717897 0.217499
0.26296 0.106502 0.433548
-0.231225 0.174049 -0.16245
-0.273438 0.464598 -0.444672
0.522833 -0.466649 -0.430649
0.41941 -0.262767 -0.1103
-0.369411 0.509298 0.284549
-0.369411 -0.21335 -0.3338
-0.369411 0.673197 -0.0805002
-0.0275888 0.151699 0.447571
-0.369411 0.665747 -0.17735
0.195911 0.210975 0.373949
0.43431 -0.1761 0.447571
-0.333038 -0.742815 0.426098
-0.369411 0.0473991 0.411198
0.41836 -0.3847 -0.423199
0.31511 -0.13885 0.447571
-0.0573887 -0.262767 0.113199
-0.231225 -0.0420006 0.254749
-0.362838 -0.13885 0.447539
0.203361 0.210975 -0.371049
-0.116989 0.106502 -0.415749
-0.0797386 -0.0449732 0.0982993
-0.131888 -0.0689175 -0.2742
-0.231225 0.770047 -0.2444
-0.318138 -0.645449 0.343101
0.40451 -0.0844403 0.366499
0.36726 -0.1165 -0.444672
-0.231225 0.740247 0.0684994
0.41836 -0.0122007 -0.378499
0.50136 -0.556049 0.343101
0.522833 -0.2357 -0.400849
0.33001 -0.262767 -0.00600043
-0.369411 0.226199 -0.1252
0.42686 -0.667799 0.343103
-0.231225 -0.0196507 -0.3338
0.46411 0.174049 0.343101
0.39706 -0.0703249 0.284549
-0.26494 -0.28785 -0.393399
-0.176588 0.144249 0.447571
-0.231225 0.144249 0.210049
-0.146788 -0.262767 -0.1252
-0.231225 0.397548 0.0759493
0.522833 -0.645449 0.373949
-0.124439 -0.262767 0.0908493
-0.369411 -0.645449 -0.393399
0.41836 -0.690149 -0.415749
-0.26494 -0.481549 -0.385949
-0.369411 0.539098 -0.1848
0.48646 0.0473991 -0.340201
0.34491 0.121899 -0.340201
-0.231255 0.323048 0.440998
-0.369411 0.680647 -0.0581503
0.41941 -0.21335 -0.444672
0.47156 -0.556049 0.343101
-0.333038 0.807297 -0.326407
-0.369411 -0.0569006 0.128099
-0.333038 -0.2357 -0.444672
-0.231225 0.136799 -0.2742
0.31511 0.206973 -0.34125
-0.191488 -0.22825 0.447571
0.44176 -0.25805 0.447571
0.518842 -0.488999 0.344149
-0.303238 -0.262767 0.195149
0.38961 -0.1463 0.447571
0.522833 -0.600749 0.359049
-0.369411 -0.1463 -0.0954002
0.522833 -0.2059 -0.0358003
-0.146788 -0.262767 -0.10285
-0.198938 0.106535 0.440998
0.046911 -0.262767 0.254749
-0.231391 0.822197 -0.2444
-0.243638 0.80944 -0.3189
-0.236188 0.781282 -0.408299
-0.347938 0.725347 0.447571
-0.236188 0.650847 0.447194
-0.369411 0.732797 -0.356149
0.28531 0.151699 0.447571
-0.184038 -0.262767 0.128099
0.522833 -0.16865 -0.2444
-0.369411 0.114449 -0.1997
0.106511 -0.25805 0.447115
0.522833 0.092099 0.418648
-0.231225 0.084649 0.247299
0.41941 0.114449 0.447569
0.45666 -0.262767 0.0833993
-0.310688 -0.496449 -0.444672
0.35981 0.114449 0.447566
-0.369411 0.0324992 -0.0805002
-0.369411 -0.18355 0.120649
0.48646 -0.474099 0.447571
0.522833 -0.191 -0.348699
0.41941 -0.262767 0.172799
-0.325588 -0.262767 0.187699
-0.231225 0.0175992 -0.371049
-0.116989 -0.262767 -0.23695
-0.231225 0.092099 0.284549
-0.236188 -0.262767 0.0535994
0.522833 -0.191 0.269649
0.43431 -0.742815 -0.408299
-0.369411 -0.27295 -0.378499
0.27786 -0.1612 -0.444672
-0.280888 -0.742815 -0.423199
-0.369411 -0.0569006 0.113199
-0.21872 -0.0420006 -0.0730502
0.44176 -0.262767 0.224949
0.0990609 0.203849 0.447554
-0.176588 -0.0844403 0.381399
0.069261 -0.0844403 0.366499
0.0320111 -0.2059 -0.444672
0.121411 -0.0605606 -0.2295
-0.369411 -0.3698 0.396298
0.054361 -0.0572438 -0.20715
-0.273438 -0.18355 -0.444672
0.522833 0.0771991 -0.408299
-0.00523883 -0.078722 0.321799
-0.0126888 0.174049 0.343101
-0.318138 -0.615649 -0.340201
0.46411 0.0622991 0.447571
0.522833 -0.0196507 -0.415749
0.39706 -0.262767 0.0163495
-0.347938 0.851364 0.0386994
-0.236188 -0.262767 0.306899
-0.267321 -0.33255 -0.34125
0.225711 -0.262767 -0.19225
-0.310688 0.211299 0.447571
0.522833 -0.0569006 -0.0730502
0.44921 -0.0718005 0.340443
0.522833 -0.10905 -0.1699
0.27041 0.210975 -0.423199
0.151211 -0.0569006 -0.204801
-0.243638 -0.262767 -0.2891
0.136311 -0.0445092 -0.0879502
-0.198938 -0.262767 0.0982993
-0.369411 0.472048 0.403748
0.151211 -0.0421298 0.0386994
0.522833 -0.22825 0.0386994
-0.303238 -0.742815 0.373949
0.522833 -0.660349 -0.423199
-0.303238 0.740247 0.447571
-0.369197 0.814747 -0.2742
-0.369411 0.740247 0.232399
-0.206388 0.210975 0.418648
-0.369411 0.613598 0.217499
0.35981 -0.0844403 -0.348699
-0.231225 0.755147 0.180249
0.121411 -0.262767 -0.16245
0.522833 -0.585849 -0.356149
0.41196 0.103209 -0.348699
0.522833 -0.2506 -0.0283504
-0.154238 -0.262767 0.00889953
0.0171111 -0.262767 -0.0432503
-0.369411 0.553998 -0.13265
-0.273438 0.807297 0.329305
-0.176588 -0.262767 -0.1252
0.181011 -0.191 0.447571
0.44921 0.0473991 -0.444672
-0.146788 -0.262767 -0.304
-0.369411 0.717897 0.299449
-0.347938 0.419898 -0.444672
-0.198938 0.121899 0.447571
0.173561 0.106535 -0.438099
-0.131888 0.203849 0.447554
0.43431 -0.262767 -0.19225
-0.369411 -0.36235 0.366499
-0.369411 0.695547 0.217499
-0.231225 0.263449 0.0163495
-0.369411 0.546548 -0.31145
-0.139338 0.144249 0.447571
0.522801 -0.30275 -0.438099
0.522833 0.0250492 -0.415749
0.522833 -0.34 0.418648
0.136311 -0.0844403 0.411198
-0.369411 0.740247 -0.408299
-0.231226 0.837097 -0.11775
0.47156 -0.262767 0.277099
0.33746 -0.262767 0.00144955
-0.369411 0.315598 -0.28165
0.106511 -0.262767 0.403748
-0.231225 0.524198 0.187699
0.44176 -0.0643506 0.447571
-0.265988 -0.660349 -0.342582
0.522833 -0.2357 0.321799
-0.295788 0.688097 -0.444672
-0.369411 0.546548 -0.2742
0.522833 0.136799 -0.371049
-0.369411 0.367748 -0.1848
0.50881 -0.645449 0.343101
-0.124439 -0.262767 -0.1997
-0.333038 0.786674 0.396298
0.522833 -0.24315 0.142999
-0.231225 0.755147 -0.16245
0.136311 0.144249 -0.444672
-0.369411 0.621048 0.0535994
0.43431 0.092099 -0.444672
-0.258538 -0.262767 -0.3189
-0.0648387 -0.0844403 0.403748
-0.369411 0.688097 -0.23695
-0.231225 0.084649 0.0833993
0.38216 -0.0415125 0.00889953
-0.198938 -0.0618879 0.239849
-0.191488 -0.0422841 -0.0432503
0.28531 -0.0632938 0.247299
-0.369411 0.822197 0.210049
-0.0424887 -0.0703249 -0.28165
-0.288338 -0.623099 0.447571
0.136311 -0.0643506 -0.25
-0.231225 0.382648 -0.28165
-0.369411 -0.27295 -0.356149
-0.369411 0.203849 -0.378499
0.50881 -0.42195 0.343101
0.24806 0.106999 -0.345636
0.42686 -0.742813 0.359049
0.44176 -0.2953 0.447571
-0.161688 -0.262767 0.165349
0.27786 -0.0419755 -0.0283504
-0.0797386 -0.262767 0.195149
0.0841609 -0.1016 0.447571
-0.231225 0.643398 0.00889953
0.50136 -0.27295 0.447571
0.24061 -0.262767 0.351599
0.41196 -0.262767 0.321799
-0.243638 0.144249 -0.444672
-0.355388 -0.262767 0.187699
-0.325588 0.807314 -0.32635
0.51626 0.174049 -0.340234
-0.231225 0.0250492 -0.0209004
0.27786 0.114449 0.343106
-0.369411 -0.2208 0.403748
-0.369411 -0.712499 0.396298
-0.295788 0.851997 -0.0153178
0.518842 -0.37725 0.344149
-0.243638 0.203849 0.447571
-0.340488 0.717897 -0.444672
-0.231225 0.501848 0.0312495
-0.231225 0.472048 -0.415749
0.27786 -0.0804506 0.329249
-0.369411 0.0697491 0.351599
-0.369411 0.278349 -0.0954002
0.166111 -0.0488152 0.142999
-0.369411 0.248549 0.0610494
-0.325588 0.8206 -0.2742
-0.340488 -0.262767 -0.17735
-0.369379 0.255999 -0.438099
-0.369411 0.255999 -0.2146
-0.231225 0.0622991 -0.00600043
-0.231225 0.717897 -0.2593
0.44921 -0.19845 0.447571
-0.295788 -0.262767 0.239849
-0.369411 0.360298 -0.25185
0.27041 -0.0550669 0.195149
0.41836 0.092099 0.366499
0.41836 -0.0271007 -0.385949
-0.231225 0.330498 -0.1103
-0.0350388 -0.262767 0.224949
0.31511 -0.262767 -0.415749
-0.369411 0.226199 0.217499
0.151211 -0.0844403 -0.363599
-0.369411 0.770047 0.403748
0.41196 -0.22825 0.447571
-0.258538 0.099549 0.447571
-0.231225 0.457148 0.0312495
-0.231225 0.524198 0.0386994
0.181011 -0.2208 0.447571
-0.231225 0.494398 -0.408299
-0.184038 0.181499 0.447571
-0.231225 0.770047 0.142999
0.522833 -0.1612 -0.32635
0.32256 -0.0454371 -0.10285
-0.154238 -0.262767 -0.1103
-0.00523883 -0.0572438 0.210049
-0.243638 -0.262767 0.329249
-0.231225 0.0622991 0.0237995
-0.0424887 -0.262767 -0.19225
-0.231225 0.635948 0.0833993
-0.231225 0.494398 -0.0283504
-0.231225 0.449698 -0.155
-0.369411 0.419898 -0.20715
-0.231225 0.494398 -0.13265
-0.231225 0.591248 -0.408299
0.30021 -0.262767 -0.13265
0.195911 -0.0572438 0.210049
-0.0275888 -0.0618879 0.239849
0.32256 -0.262767 -0.1401
0.522833 -0.15375 -0.26675
-0.231225 0.241099 -0.1252
-0.0201388 -0.2208 0.447571
0.30021 -0.262767 0.0312495
-0.369411 0.419898 0.366499
-0.355388 0.278349 -0.444672
-0.288338 0.628498 0.447571
-0.369379 0.330498 0.440998
0.36726 -0.0661056 0.262199
-0.359005 0.807297 0.329249
-0.109539 -0.1612 0.447571
0.522831 -0.0420006 0.351599
-0.109539 0.106502 -0.371049
-0.369411 0.740247 0.373949
0.195911 -0.0415125 -0.00600043
-0.243638 -0.15375 0.447571
0.195911 0.136799 0.447571
-0.0499387 0.188949 -0.340201
-0.369411 0.710447 0.373949
-0.369411 -0.4294 -0.378499
-0.231225 0.0250492 0.187699
0.30766 -0.0836708 0.344149
0.35236 0.121899 -0.444672
0.522833 -0.1761 0.254749
-0.0722887 -0.262767 -0.25185
0.173561 0.210975 -0.408299
0.188461 -0.1612 0.447571
-0.236188 0.568898 -0.444295
-0.243638 0.82551 -0.25185
0.33746 0.106502 0.403748
-0.288338 0.740247 -0.444672
0.29276 -0.0844403 0.411198
-0.273438 0.211299 0.447571
-0.231225 0.308148 0.418648
0.522833 -0.15375 -0.3189
-0.146788 0.166599 -0.340201
-0.0722887 -0.0689175 -0.2742
0.210811 0.106502 0.381399
-0.340488 -0.570949 -0.340201
0.158661 -0.262767 0.0833993
0.522833 -0.18355 -0.430649
0.418362 0.0473991 -0.348699
-0.231225 0.367748 -0.385949
-0.231225 0.241099 0.247299
-0.0946386 0.210975 -0.423199
-0.369411 0.0697491 -0.378499
-0.362838 -0.0569006 0.447539
-0.369411 0.0771991 -0.17735
-0.310688 -0.262767 -0.0879502
0.136311 0.174049 0.343101
-0.231225 0.419898 0.239849
-0.369411 0.099549 -0.348699
0.522833 -0.712499 -0.430649
-0.231225 0.248549 0.321799
0.32256 0.210975 -0.430649
0.522833 -0.0792505 -0.25185
-0.369411 0.203849 -0.0730502
-0.369411 -0.42195 -0.408299
0.41836 0.084649 0.418648
0.195911 -0.262767 -0.2146
-0.369411 0.643398 -0.0656003
-0.231255 0.501848 0.440998
0.33001 -0.262767 -0.23695
0.181011 -0.0422841 0.0461494
0.50136 -0.0422841 -0.0432503
0.46411 -0.742815 -0.415749
-0.369411 -0.10905 -0.408299
-0.369411 0.218749 0.113199
0.51626 0.174049 0.447539
0.27786 0.106502 0.396298
0.069261 0.166599 -0.340201
-0.109539 -0.262767 -0.0805002
0.42686 0.129349 -0.340201
-0.231225 0.427348 0.306899
0.44176 -0.24315 0.447571
0.47156 -0.0759727 0.336699
-0.369411 0.121899 0.336699
-0.198938 -0.262767 -0.400849
0.128861 0.203849 0.343118
-0.206388 0.196399 0.343101
-0.333038 -0.40705 0.447571
-0.191488 -0.10905 0.447571
-0.102089 0.210975 0.433548
0.218261 -0.2506 0.447571
0.34491 -0.0844403 -0.430649
0.51626 -0.742783 0.418648
0.42686 0.0697491 -0.44467
0.37471 -0.0703249 0.284549
0.48646 -0.459199 -0.444672
-0.369411 0.457148 0.396298
-0.131888 -0.0941505 -0.444672
0.522833 0.0622991 0.396298
-0.369411 -0.2506 -0.415749
0.41836 -0.00475072 0.388848
0.30766 0.136799 -0.444672
-0.369411 0.0250492 0.0163495
-0.369411 0.442248 0.128099
-0.231225 0.367748 0.135549
0.0916109 -0.0752649 0.306899
-0.264942 -0.2953 0.351599
-0.369411 0.621048 -0.2593
-0.0797386 -0.262767 0.135549
-0.228738 -0.262767 -0.2891
-0.231225 0.211299 -0.304
0.121411 -0.262767 -0.0432503
0.32256 -0.1016 0.447571
-0.369411 -0.191 -0.3189
0.181011 -0.22825 -0.444672
-0.369411 0.583798 0.00144955
0.233161 -0.1463 -0.444672
-0.251088 -0.0792505 0.447571
0.522833 -0.16865 -0.371049
-0.0573887 -0.262767 -0.32635
-0.228738 -0.0342505 -0.0954002
-0.236188 0.838722 0.180249
-0.369411 0.00269926 -0.1103
-0.369411 -0.548599 0.396298
-0.369411 0.226199 0.0982993
-0.362838 -0.262737 0.239849
0.44921 0.0250492 0.447571
-0.0350388 -0.262767 -0.00600043
0.30766 -0.262767 0.396298
0.522833 -0.10905 -0.0283504
0.203361 0.210975 -0.408299
-0.0424887 -0.262767 -0.385949
-0.325588 0.834218 -0.20715
0.44921 -0.43685 0.343101
0.0990609 0.203849 0.343118
-0.228738 0.174049 -0.444672
0.069261 -0.12395 -0.444672
-0.0424887 -0.262767 0.0684994
0.46411 -0.27295 -0.444672
-0.26494 -0.630549 -0.408299
-0.310688 -0.33255 0.343101
-0.369411 0.695547 0.373949
-0.369411 0.725347 -0.20715
-0.369411 0.375198 -0.23695
-0.369411 0.0101492 0.0833993
-0.369411 0.583798 0.232399
-0.347938 0.457148 -0.444672
0.522833 -0.1463 0.0237995
0.416082 -0.27295 -0.438099
-0.369411 0.665747 -0.408299
-0.369411 -0.0718005 0.366499
-0.131888 -0.262767 -0.2444
0.26296 -0.262767 -0.14755
0.49391 -0.503899 -0.444672
0.31511 0.210975 -0.378499
0.30766 -0.1314 -0.444672
-0.243638 0.084649 0.447571
0.522833 -0.1314 0.277099
0.44176 -0.0718005 0.29186
0.50881 -0.10905 0.447571
0.522831 -0.4294 -0.348699
-0.295788 0.817327 -0.2891
-0.280888 -0.34745 0.447571
-0.109539 0.166599 0.343101
-0.26494 -0.690149 0.411198
0.188461 -0.0689175 0.277099
0.32256 -0.262767 -0.356149
0.218261 0.129349 -0.444672
-0.231225 0.106999 -0.0730502
0.158661 -0.0539784 0.187699
0.518842 -0.541149 0.344149
0.24806 -0.0632938 -0.2444
0.173561 -0.0718287 0.291999
-0.26494 -0.2953 0.366499
0.33001 -0.0415125 0.00889953
-0.231225 0.0399492 0.329249
-0.369411 0.643398 0.411198
-0.318138 -0.526249 -0.444672
-0.369411 -0.21335 0.291999
0.225711 -0.262767 0.381399
0.188461 0.129349 0.447571
-0.258538 0.0473991 -0.444672
0.48646 -0.511349 0.447571
-0.154238 -0.262767 -0.31145
-0.154238 -0.262767 0.329249
0.41941 -0.578399 -0.440686
-0.231225 0.278349 -0.34125
-0.369411 0.576348 -0.19225
0.50881 -0.503899 0.447571
0.41941 -0.264139 -0.32635
-0.198938 -0.0413613 0.00144955
-0.231225 0.688097 0.299449
-0.221288 -0.0463369 0.142999
0.46411 -0.3996 -0.444672
0.35981 -0.1463 -0.444672
0.30021 -0.0426532 -0.0581503
0.41196 -0.0816674 -0.415749
0.49391 -0.742815 0.433548
-0.231225 0.606148 0.336699
0.41836 -0.0420006 -0.378499
-0.231225 0.747697 0.150449
0.41196 -0.267484 -0.385949
-0.325588 0.270899 -0.444672
0.35236 0.106502 0.366499
-0.273438 -0.4294 -0.44467
0.43431 -0.2357 0.447571
-0.369411 0.129349 -0.31145
0.30021 -0.05289 -0.17735
-0.231225 0.330498 -0.415749
-0.236188 -0.262767 0.277099
-0.369411 0.606148 -0.32635
-0.102089 -0.0459102 -0.1103
0.45666 0.0175992 -0.444672
0.225711 -0.0420006 0.0324635
-0.340488 0.851134 -0.0432503
-0.251088 -0.16865 0.447571
0.24061 0.106502 -0.363599
0.188461 -0.0539784 0.187699
-0.295788 0.300698 0.447571
-0.273438 -0.37725 -0.44467
0.47901 0.0101492 0.447571
-0.333038 0.794444 -0.371049
0.210811 -0.262737 -0.438099
0.233161 -0.25805 -0.444216
0.46411 -0.262767 0.150449
0.39706 -0.0416668 -0.0134504
0.00221115 -0.21335 0.447571
0.00221115 -0.262767 -0.0879502
-0.231225 0.084649 0.388848
0.158661 -0.0844403 -0.408299
-0.231225 0.710447 -0.14755
-0.213838 -0.0844718 0.440998
-0.139338 -0.24315 -0.444672
0.0171111 -0.19845 -0.444672
-0.191488 -0.0792505 -0.321177
-0.0722887 0.210975 0.418648
0.30021 0.106502 -0.430649
0.233161 -0.262767 -0.11775
-0.369411 0.315598 0.239849
-0.236188 -0.262767 0.291999
-0.369411 -0.1016 0.00889953
0.522833 -0.660349 0.388848
-0.362838 -0.262737 0.306899
0.47901 -0.262767 0.321799
0.158661 -0.262767 -0.32635
-0.231225 0.457148 0.418648
-0.369411 -0.0569006 -0.22205
-0.265988 -0.645449 0.345481
0.47901 0.210975 -0.415749
0.40451 -0.264206 0.373949
-0.231225 0.777497 0.172799
-0.362838 -0.742783 -0.415749
0.29276 0.121899 -0.340201
-0.369411 0.345398 0.418648
-0.206388 -0.0941505 -0.444672
0.522801 -0.3996 0.440998
0.46411 -0.541149 -0.340201
0.24806 -0.262767 0.381399
-0.369411 0.092099 -0.1997
0.43431 -0.0661056 0.262199
0.0245611 0.106502 0.433548
-0.258538 0.516748 0.447571
0.203361 -0.262767 0.284549
-0.369411 0.270899 0.0237995
0.128861 -0.0495901 0.150449
-0.231225 0.457148 0.135549
0.039461 -0.262767 0.0759493
0.43431 -0.262767 -0.22205
0.136311 -0.18355 -0.444672
-0.369411 -0.1761 -0.2593
-0.258538 0.621048 -0.444672
-0.231225 0.710447 0.351599
-0.369411 -0.2059 0.284549
0.39706 0.106999 0.442323
-0.154238 -0.22825 0.447571
-0.369411 0.673197 0.396298
-0.369411 0.814747 0.202599
-0.198938 0.106502 -0.371049
-0.369411 0.136799 -0.2295
-0.26494 -0.466649 -0.356149
-0.231225 0.352848 -0.26675
0.33001 -0.0459102 0.113199
-0.369411 -0.4443 0.403748
0.143761 -0.0632938 -0.2444
-0.369411 0.293248 0.299449
0.30021 -0.262767 0.269649
0.054361 0.210973 -0.348699
-0.231225 0.233649 0.187699
-0.369409 -0.705049 0.351599
0.33746 -0.0424399 -0.0507003
-0.362838 -0.652899 -0.340234
0.113961 -0.0472655 -0.1252
-0.369411 0.591248 -0.2295
-0.169138 -0.0792505 -0.321177
0.061811 -0.12395 -0.444672
0.29276 -0.0661056 -0.2593
0.0841609 -0.0435812 -0.0730502
0.49391 -0.0494506 0.149108
0.50881 -0.262767 -0.28165
-0.231225 0.166599 0.247299
-0.369411 0.159149 -0.22205
-0.369411 0.0771991 0.0833993
-0.280888 0.092099 0.447571
-0.362838 0.203849 -0.44464
-0.265988 0.084649 -0.444672
-0.231225 0.628498 0.0833993
-0.369411 0.799847 -0.16245
-0.369411 0.747697 0.284549
-0.369411 0.643398 0.291999
0.106511 0.210975 0.366499
0.522833 -0.2059 -0.363599
-0.310688 -0.496449 0.343101
-0.243638 0.852285 -0.00600043
-0.231225 0.0548491 -0.1699
-0.265988 -0.37725 0.443581
0.166111 -0.0792505 0.324076
0.25551 -0.25805 -0.444216
-0.231225 0.717897 -0.0134504
-0.124439 0.210975 0.403748
0.46411 -0.712499 0.343101
-0.0201388 0.121899 -0.340201
-0.303238 0.850184 0.0759493
-0.295788 0.404998 -0.444672
-0.369411 -0.00475072 0.344149
0.00966112 0.196399 0.447571
-0.369411 0.382648 -0.0805002
-0.26494 -0.3698 -0.371049
0.29276 -0.25805 0.447115
-0.0573887 -0.262767 -0.0209004
0.522833 -0.16865 0.202599
0.49391 -0.0618879 0.239849
-0.231225 0.300698 0.329249
-0.231225 0.628498 0.135549
0.522833 -0.727399 0.388848
-0.369411 0.695547 0.0610494
-0.369411 -0.2208 -0.1252
-0.369411 0.121899 0.291999
-0.369411 0.0324992 0.0833993
-0.116989 -0.0804506 -0.32635
-0.355388 -0.712499 0.343101
0.203361 -0.262767 0.105749
0.151211 -0.262767 -0.371049
0.00966112 0.144249 0.447571
0.218261 -0.262767 0.247299
-0.231225 0.390098 0.0237995
-0.0946386 0.106502 0.388848
0.522831 -0.585849 0.351599
-0.369411 0.0622991 0.388848
0.41196 -0.262767 0.135549
0.46411 -0.742813 -0.348699
0.38216 -0.0539784 -0.1848
-0.251088 0.817327 0.291999
-0.280888 0.591248 0.447571
-0.0648387 0.210975 -0.408299
0.173561 0.106502 0.426098
-0.369411 0.0101492 0.135549
-0.231225 0.0622991 0.299449
-0.26494 -0.37725 0.388848
-0.231225 0.583798 -0.356149
-0.369411 0.725347 0.0610494
-0.310688 0.850443 -0.0656003
0.32256 -0.0494506 0.149108
-0.295788 0.789308 -0.385949
0.151211 -0.262767 -0.2742
-0.369411 -0.0792505 0.403748
0.43431 -0.2655 -0.32997
-0.273438 -0.3251 -0.340203
0.50881 0.196399 -0.444672
-0.264972 -0.727399 0.440998
0.38961 -0.262767 0.291999
-0.369411 -0.191 -0.155
-0.267321 -0.541149 0.344149
0.210811 -0.0583322 0.217499
-0.231225 -0.0494506 0.344149
0.30766 -0.0844718 0.440998
0.069261 -0.262767 -0.0432503
0.49391 -0.3698 -0.340201
-0.369411 -0.12395 -0.348699
0.522833 -0.3996 -0.378499
-0.231225 0.337948 -0.23695
0.522833 -0.15375 -0.415749
-0.369411 0.404998 -0.2444
0.34491 -0.0569006 0.2077
0.046911 -0.262767 -0.20715
